ply
format ascii 1.0
comment PCL generated
element vertex 1189
property float x
property float y
property float z
property uchar red
property uchar green
property uchar blue
element camera 0
property float view_px
property float view_py
property float view_pz
property float x_axisx
property float x_axisy
property float x_axisz
property float y_axisx
property float y_axisy
property float y_axisz
property float z_axisx
property float z_axisy
property float z_axisz
property float focal
property float scalex
property float scaley
property float centerx
property float centery
property int viewportx
property int viewporty
property float k1
property float k2
end_header
-369.96518 -11.48945 1628.4834 205 205 205
-366.62466 -11.487599 1628.4235 149 149 149
-348.13199 7.5174799 1631.78 40 40 40
-347.03601 7.5096798 1630.11 42 42 42
-345.63068 9.8112755 1629.6399 41 41 41
-343.52402 11.33335 1628.34 40 40 40
-342.98578 12.976076 1628.41 42 42 42
-231.41901 71.595497 1629.0699 43 43 43
-223.737 71.705299 1631.8199 52 52 52
-230.662 72.315399 1628.9 46 46 46
-221.67557 74.05014 1629.9399 47 47 47
-219.60651 75.553299 1628.345 44 44 44
-221.17168 76.523834 1630.8834 44 44 44
-218.778 77.53508 1628.6941 45 45 45
-206.25325 83.614426 1629.6951 37 37 37
-206.67599 84.731003 1630.13 44 44 44
-189.69667 94.468292 1628.7567 41 41 41
-189.01801 96.3134 1629.1801 42 42 42
-225.054 123.315 1631.8134 39 39 39
-56.689632 -158.55432 1633.21 38 38 38
-53.646805 -157.64508 1634.3136 28 28 28
-51.417149 -157.59351 1635.925 26 26 26
-56.855316 -152.93872 1633.0914 15 15 15
-54.701462 -154.08881 1634.5396 16 16 16
-60.064602 -149.23 1632.4733 15 15 15
-57.907135 -149.99913 1634.2948 15 15 15
-55.417496 -151.31924 1635.345 16 16 16
-61.655613 -145.86475 1633.7856 15 15 15
-59.183731 -147.51633 1635.0699 15 15 15
-65.099358 -141.58687 1633.3322 16 16 16
-63.070908 -142.52777 1634.8384 15 15 15
-68.84243 -136.8732 1633.092 16 16 16
-66.506874 -138.32977 1634.5062 16 16 16
-72.715431 -132.70233 1632.66 16 16 16
-69.99292 -134.09325 1634.0989 16 16 16
-67.121246 -135.62451 1635.6699 15 15 15
-76.475052 -128.06549 1632.4651 17 17 17
-73.785759 -129.71616 1633.6958 16 16 16
-71.435402 -131.20329 1635.2285 16 16 16
-77.215324 -125.6785 1633.5845 17 17 17
-75.034912 -126.70325 1634.9187 16 16 16
-81.082527 -120.89622 1633.0688 16 16 16
-78.754364 -122.37387 1634.4149 16 16 16
-84.438156 -116.9976 1632.7319 16 16 16
-82.260429 -118.13132 1634.2015 16 16 16
-79.907997 -119.541 1635.63 16 16 16
-88.512405 -112.389 1632.52 16 16 16
-85.869492 -113.7799 1633.8239 16 16 16
-83.364601 -115.3195 1635.34 15 15 15
-89.544884 -109.59293 1633.3829 16 16 16
-87.343567 -110.64845 1634.9756 16 16 16
-92.938423 -104.92191 1633.4219 16 16 16
-90.427864 -106.59184 1634.5895 16 16 16
-96.683701 -101.2356 1632.5559 14 14 14
-94.468079 -102.16704 1634.1008 14 14 14
98.579903 -101.04244 1634.2201 17 17 17
-100.1845 -96.350647 1632.5549 13 13 13
-98.071663 -97.884369 1633.8365 14 14 14
-95.590103 -99.420197 1635.1174 14 14 14
94.829285 -97.194603 1633.3673 16 16 16
97.021248 -98.442818 1634.62 16 16 16
-101.32211 -93.836609 1633.8568 13 13 13
-99.117729 -94.914452 1635.0533 13 13 13
91.344536 -93.410095 1632.8212 15 15 15
93.509033 -94.32869 1634.2529 15 15 15
-105.07864 -89.006607 1633.389 12 12 12
-103.05837 -90.321541 1634.7794 13 13 13
90.106697 -90.059944 1634.1882 14 14 14
92.997696 -91.779495 1635.515 15 15 15
107.26133 -88.135193 1635.4501 43 43 43
110.34156 -88.454498 1635.2935 42 42 42
113.90764 -88.599823 1635.3228 40 40 40
-108.74214 -84.957474 1632.7244 12 12 12
-106.32649 -86.166191 1634.225 12 12 12
86.330528 -85.705833 1633.3492 16 16 16
89.721107 -85.757484 1634.8685 23 23 23
94.144424 -85.387421 1634.3433 27 27 27
98.147705 -85.772163 1634.3204 32 32 32
102.04641 -85.864166 1634.0192 39 39 39
105.95457 -86.068077 1633.5631 40 40 40
110.04065 -86.196808 1633.2733 45 45 45
114.05798 -86.562363 1633.2151 44 44 44
135.4865 -84.532455 1635.875 217 217 217
137.30199 -84.524467 1635.6866 212 212 212
-112.566 -80.664398 1632.23 12 12 12
-110.16503 -81.88105 1633.921 12 12 12
-107.1325 -83.568802 1635.65 12 12 12
83.194672 -82.437424 1632.311 20 20 20
85.830727 -82.572014 1632.9948 27 27 27
89.784378 -83.162125 1632.9871 27 27 27
93.913429 -83.223351 1632.475 29 29 29
97.442078 -83.467865 1632.4482 34 34 34
100.459 -83.569801 1632.02 42 42 42
119.599 -83.690804 1634.04 144 144 144
122.15977 -81.977753 1634.6029 174 174 174
125.94506 -81.951591 1634.674 199 199 199
130.12091 -82.047287 1634.2366 205 205 205
133.9966 -82.323189 1634.0203 208 208 208
137.16978 -82.27375 1633.5566 210 210 210
-113.55109 -77.784592 1633.6505 12 12 12
-111.417 -78.854851 1635.0416 12 12 12
122.9892 -79.82103 1632.472 179 179 179
125.82333 -79.852798 1632.5668 200 200 200
129.33249 -79.962776 1632.2549 206 206 206
-116.92617 -73.709175 1632.8501 11 11 11
-114.84094 -74.312569 1634.7982 12 12 12
-117.33801 -71.939323 1632.6725 18 18 18
-365.70401 -63.573002 1633.9399 43 43 43
-359.47 -55.452999 1632.64 42 42 42
-388.37701 -16.688999 1635.89 210 210 210
-386.08481 -16.684999 1635.6321 208 208 208
-381.82581 -17.006767 1635.4366 210 210 210
-377.7894 -17.183062 1635.1206 209 209 209
-374.03604 -17.404793 1634.9473 206 206 206
-370.75491 -17.334219 1634.7681 176 176 176
-388.19299 -15.9471 1635.12 217 217 217
-385.8194 -14.915133 1633.8156 211 211 211
-382.08957 -14.80906 1633.2422 211 211 211
-378.06705 -15.189512 1633.1167 210 210 210
-374.3017 -15.410587 1632.873 210 210 210
-370.01892 -15.514318 1632.7164 175 175 175
-350.29401 6.9787951 1634.1025 41 41 41
-348.71451 8.2541447 1632.775 42 42 42
-329.48383 17.300484 1635.2017 37 37 37
-326.24564 21.440666 1634.4166 37 37 37
-225.9482 71.169601 1634.549 49 49 49
-224.646 72.492302 1633.09 49 49 49
-223.62151 73.551025 1632.295 47 47 47
-222.4525 76.508102 1633.105 44 44 44
-205.9126 86.211777 1633.35 34 34 34
-223.31551 126.96249 1633.35 38 38 38
-49.315899 -160.089 1638.9966 37 37 37
-52.919003 -159.90334 1637.0668 37 37 37
-49.976669 -157.93396 1637.6416 23 23 23
-47.621502 -158.55482 1639.5767 24 24 24
-52.805088 -153.48653 1637.1669 16 16 16
-50.664768 -154.61305 1638.7092 16 16 16
-57.102798 -148.319 1636.5449 15 15 15
-54.37986 -150.14758 1638.179 16 16 16
-60.198551 -144.81299 1636.21 15 15 15
-58.023758 -145.97723 1637.7153 15 15 15
-55.731224 -147.09926 1639.2849 16 16 16
-61.460026 -141.58345 1637.6827 16 16 16
-59.0513 -142.92711 1638.9349 15 15 15
-65.122849 -137.4812 1636.8899 16 16 16
-63.106876 -138.47922 1638.5686 16 16 16
-69.001106 -132.43715 1636.9449 16 16 16
-66.290062 -134.12578 1638.3572 16 16 16
-63.9753 -135.93201 1639.4 17 17 17
-72.648903 -128.397 1636.73 17 17 17
-70.054237 -129.94431 1637.8073 16 16 16
-67.407097 -131.31801 1639.7433 17 17 17
-73.632469 -125.5704 1637.6372 16 16 16
-71.125748 -127.20055 1639.141 16 16 16
-76.99913 -121.63051 1637.0729 16 16 16
-74.81002 -122.57316 1638.7467 16 16 16
-80.711113 -116.90675 1637.13 16 16 16
-78.631851 -118.43349 1638.0254 15 15 15
-84.586731 -112.546 1636.6266 16 16 16
-81.858818 -114.02697 1638.1737 15 15 15
-79.376701 -115.45 1639.84 16 16 16
-85.705025 -109.65867 1637.6504 16 16 16
-83.206718 -111.10285 1638.9928 16 16 16
-89.145416 -105.28025 1637.5638 14 14 14
-86.969124 -106.77764 1638.5636 15 15 15
-92.810463 -101.34499 1636.743 14 14 14
-90.650902 -102.35705 1638.3416 14 14 14
-96.457703 -96.950363 1636.5756 13 13 13
-94.026634 -98.231506 1638.1646 13 13 13
-91.829498 -99.335403 1639.8 13 13 13
98.631996 -97.509079 1636.983 16 16 16
100.20201 -97.979141 1637.8386 17 17 17
-97.666916 -93.903954 1637.7677 13 13 13
-95.164322 -95.05304 1639.1859 13 13 13
95.232124 -93.3311 1637.0658 14 14 14
97.364471 -94.227791 1638.4994 14 14 14
103.505 -92.021744 1639.665 38 38 38
106.0822 -92.03154 1639.7981 42 42 42
110.09701 -92.017334 1639.4751 40 40 40
113.77 -92.75605 1639.52 38 38 38
-101.27333 -89.713356 1637.1294 13 13 13
-99.046181 -90.736984 1638.7709 12 12 12
91.325447 -88.70002 1636.5013 16 16 16
94.304337 -89.949272 1637.8087 20 20 20
97.807396 -89.535095 1638.1188 26 26 26
101.97397 -89.66301 1637.6626 34 34 34
105.84017 -89.839027 1637.5664 42 42 42
109.81161 -90.293381 1637.4337 42 42 42
113.66081 -90.80249 1637.3075 42 42 42
134.16376 -88.39827 1639.8176 213 213 213
136.52649 -88.385056 1639.52 211 211 211
-104.50733 -85.597626 1636.8466 12 12 12
-102.50107 -86.446716 1638.3433 12 12 12
-99.888397 -87.620499 1639.8 12 12 12
91.361679 -87.150352 1636.4241 23 23 23
93.846565 -87.251427 1636.7142 28 28 28
96.692551 -87.434753 1636.1899 24 24 24
122.17321 -85.929871 1638.5811 185 185 185
126.05186 -85.6866 1638.0825 198 198 198
130.00809 -86.18895 1638.1342 205 205 205
133.90518 -86.109283 1637.5494 209 209 209
136.80598 -86.489235 1637.52 210 210 210
-108.786 -80.745262 1636.8899 12 12 12
-106.26237 -82.114784 1638.2412 12 12 12
-103.536 -83.947304 1639.53 10 10 10
122.34401 -83.819199 1636.5001 183 183 183
126.00433 -83.820786 1636.4567 197 197 197
128.9075 -83.805405 1636.095 202 202 202
-112.127 -76.490402 1636.53 12 12 12
-109.83305 -77.901291 1637.8009 12 12 12
-107.6282 -78.962204 1639.3561 12 12 12
-112.86649 -74.426262 1636.6616 12 12 12
-110.64969 -74.965744 1638.8654 12 12 12
-389.66873 -20.408751 1639.7524 208 208 208
-385.70535 -20.679375 1639.5437 208 208 208
-381.7605 -20.824799 1639.1351 209 209 209
-377.92786 -21.126085 1638.9321 208 208 208
-374.00433 -21.325619 1638.7744 197 197 197
-371.87048 -20.7484 1638.485 135 135 135
-389.15961 -18.919449 1638.24 208 208 208
-386.05948 -18.523733 1637.4751 209 209 209
-382.20578 -18.729918 1637.1852 213 213 213
-378.22159 -19.055206 1636.9871 209 209 209
-373.89261 -19.225183 1636.6792 205 205 205
-371.13199 -19.258976 1636.87 141 141 141
-356.28101 0.93695301 1638.64 40 40 40
-355.14349 3.1410775 1638.5325 42 42 42
-344.41449 8.6506996 1638.72 40 40 40
-343.68298 10.119975 1638.77 41 41 41
-332.98767 14.8885 1638.4867 39 39 39
-332.742 16.3692 1639.71 37 37 37
-330.71979 17.976522 1637.4524 37 37 37
-328.785 21.127701 1638.4675 37 37 37
-327.42932 21.470068 1636.64 37 37 37
-259.12701 50.459251 1639.8701 44 44 44
-256.77499 53.755066 1639.7633 44 44 44
-232.5575 65.462952 1639.75 47 47 47
-231.37102 66.904533 1639.1666 46 46 46
-229.31189 69.545654 1637.4385 47 47 47
-227.282 71.170601 1636.22 47 47 47
-220.69501 70.924301 1639.1951 52 52 52
-219.45 71.976402 1638.14 45 45 45
-220.3835 72.408401 1639.6101 48 48 48
-218.87633 74.3498 1639.3384 47 47 47
-217.47701 77.183197 1639.87 46 46 46
-222.22133 131.09865 1637.8534 40 40 40
-221.3895 132.82249 1638.025 39 39 39
-48.985046 -160.938 1640.175 38 38 38
-45.880005 -160.96519 1641.9628 37 37 37
-43.332302 -160.79301 1643.73 35 35 35
-45.700142 -157.77626 1641.8163 18 18 18
-43.55875 -159.379 1643.0549 19 19 19
-49.556339 -153.35631 1641.0363 16 16 16
-47.439919 -154.43507 1642.4983 17 17 17
-52.864948 -149.40289 1640.6655 15 15 15
-50.610352 -150.28583 1642.4023 16 16 16
-56.931168 -144.33199 1640.4733 16 16 16
-54.221542 -146.15584 1641.8496 15 15 15
-57.502308 -141.90266 1641.881 15 15 15
-54.944977 -143.22824 1643.265 15 15 15
-61.461773 -137.4809 1641.2518 16 16 16
-58.914894 -138.87656 1642.9238 16 16 16
-64.556229 -133.43649 1641.175 17 17 17
-62.404755 -134.36943 1642.7307 16 16 16
-68.606773 -128.70624 1640.7148 17 17 17
-66.113564 -130.03596 1642.2079 16 16 16
-63.403301 -131.87399 1643.66 16 16 16
-72.077301 -124.6545 1640.45 15 15 15
-69.726311 -125.85857 1641.837 16 16 16
-67.555199 -127.20367 1643.4268 16 16 16
-73.29834 -121.5843 1641.5726 15 15 15
-70.882637 -122.93045 1643.0221 16 16 16
-77.224777 -117.32362 1640.8333 15 15 15
-74.881416 -118.4258 1642.5325 16 16 16
-80.146652 -112.9395 1640.6299 16 16 16
-78.168732 -114.0751 1642.2246 15 15 15
-75.895096 -115.3625 1643.8501 15 15 15
-84.520699 -108.146 1640.15 15 15 15
-81.836662 -109.88781 1641.8796 15 15 15
-79.53923 -111.28467 1643.2666 14 14 14
-85.549522 -105.66537 1641.4625 14 14 14
-83.053787 -106.9425 1643.082 14 14 14
-89.154129 -101.29419 1641.1542 14 14 14
-86.591927 -102.74466 1642.6946 14 14 14
-92.779503 -96.991577 1640.42 13 13 13
-90.488937 -98.173897 1642.1183 13 13 13
-87.622002 -99.551003 1643.42 12 12 12
103.02499 -96.650696 1643.64 45 45 45
110.597 -96.800941 1643.566 44 44 44
112.78701 -96.935181 1643.3119 45 45 45
-96.506897 -92.293266 1640.4434 12 12 12
-93.889359 -93.80909 1642.0459 13 13 13
-91.410278 -95.557175 1642.8679 13 13 13
98.919518 -93.234215 1640.6666 20 20 20
101.89156 -93.97863 1641.6686 34 34 34
105.98063 -94.383148 1641.9867 41 41 41
109.94572 -94.269669 1641.4004 40 40 40
113.07837 -94.514732 1641.4387 40 40 40
134.30119 -92.28038 1643.6941 214 214 214
136.479 -92.262001 1643.3199 213 213 213
-97.489876 -89.608223 1641.6465 12 12 12
-95.25753 -90.724663 1643.0228 13 13 13
98.763237 -91.31057 1640.1333 30 30 30
100.235 -91.315804 1640.2 32 32 32
119.21 -90.267578 1642.45 159 159 159
122.05517 -89.625214 1642.3979 191 191 191
126.19214 -89.790352 1642.2831 203 203 203
130.04054 -89.92144 1641.864 209 209 209
133.9989 -90.298691 1641.6589 213 213 213
136.4408 -90.085098 1641.116 212 212 212
-101.01218 -85.202225 1641.7098 12 12 12
-98.709648 -86.816406 1642.7329 12 12 12
122.285 -87.692932 1640.5759 194 194 194
125.93459 -87.680443 1640.2679 200 200 200
-104.821 -81.183907 1641.0223 11 11 11
-102.61481 -82.22316 1642.4203 12 12 12
-108.36549 -76.675598 1640.55 12 12 12
-106.03732 -77.845055 1642.0815 11 11 11
-103.54501 -79.506569 1643.6133 11 11 11
-108.54629 -75.122841 1640.9286 12 12 12
-106.47543 -75.00457 1642.9557 16 16 16
-392.84851 -24.148649 1643.6799 206 206 206
-389.66229 -24.354643 1643.5314 209 209 209
-385.85245 -24.606153 1643.2566 206 206 206
-381.98837 -24.820885 1642.9719 208 208 208
-377.90118 -25.23048 1642.849 205 205 205
-375.01031 -25.000841 1642.4441 172 172 172
-392.20349 -23.025799 1642.5549 208 208 208
-389.91541 -22.310612 1641.571 209 209 209
-386.15271 -22.388338 1641.1754 207 207 207
-382.23135 -22.68042 1640.9592 211 211 211
-378.15872 -23.024117 1640.8074 207 207 207
-374.43961 -23.034927 1640.4187 182 182 182
-360.10199 -0.90243101 1642.505 40 40 40
-359.19299 -0.53383499 1641.76 41 41 41
-359.32101 0.202461 1642.34 42 42 42
-344.01801 11.2327 1640.37 42 42 42
-337.9205 11.61915 1643.24 39 39 39
-331.991 10.5139 1643.35 38 38 38
-336.65335 13.458733 1643.1034 40 40 40
-334.85419 15.363019 1642.0599 38 38 38
-334.37598 16.3951 1642.265 38 38 38
-326.01608 18.13431 1642.5262 36 36 36
-330.47699 20.429649 1641.355 37 37 37
-324.86401 20.332666 1643.64 31 31 31
-260.82101 50.206402 1643.5601 44 44 44
-259.741 50.874401 1641.41 43 43 43
-238.95198 59.452229 1642.3467 43 43 43
-237.58234 61.559338 1643.0767 43 43 43
-236.47 64.161499 1643.89 46 46 46
-233.85439 66.339432 1641.873 45 45 45
-232.436 68.467796 1641.47 44 44 44
-231.7545 69.585205 1641.86 49 49 49
-224.58701 70.009102 1643.4301 50 50 50
-222.7769 70.756462 1642.052 49 49 49
-221.761 72.498299 1641.6174 49 49 49
-219.52568 75.015068 1640.5133 47 47 47
-218.72667 76.789368 1641.8734 45 45 45
-41.568081 -161.67041 1645.676 32 32 32
-39.396797 -161.25389 1647.2012 27 27 27
-44.326302 -156.192 1644.34 17 17 17
-42.020779 -158.12576 1645.757 17 17 17
-39.498501 -159.18233 1647.3867 17 17 17
-45.372265 -153.70753 1645.505 16 16 16
-43.176743 -154.74933 1647.2745 16 16 16
-48.994869 -149.29758 1645.3774 16 16 16
-46.593906 -150.689 1646.6371 15 15 15
-52.910187 -144.94633 1644.7017 15 15 15
-50.43528 -146.34058 1646.2124 15 15 15
-56.463875 -140.41602 1644.755 15 15 15
-53.897774 -141.90916 1645.9536 15 15 15
-51.510433 -143.675 1647.0033 15 15 15
-57.456646 -137.60295 1645.6682 17 17 17
-54.95163 -139.02916 1647.2217 16 16 16
-61.140308 -133.17465 1645.379 17 17 17
-58.968788 -134.44182 1646.5582 16 16 16
-64.609238 -129.04042 1645.0128 16 16 16
-62.457592 -130.26385 1646.3083 17 17 17
-68.575798 -124.588 1644.45 16 16 16
-66.105995 -125.93033 1646.0072 16 16 16
-63.563999 -127.793 1647.91 17 17 17
-72.234497 -120.155 1644.11 15 15 15
-69.705109 -121.65825 1645.5408 15 15 15
-67.364418 -122.73539 1647.2311 16 16 16
-73.016998 -117.63392 1645.2224 16 16 16
-70.886314 -118.55115 1646.983 15 15 15
-76.778259 -112.78538 1645.1051 15 15 15
-74.339264 -114.57127 1646.4207 15 15 15
-80.324844 -108.786 1644.3401 14 14 14
-78.013031 -110.10316 1646.1492 14 14 14
-75.345802 -111.601 1647.98 14 14 14
-84.0028 -104.019 1644.4399 14 14 14
-81.617088 -105.55183 1645.9609 14 14 14
-79.185532 -107.21928 1646.8956 14 14 14
-85.183411 -101.49405 1645.1895 13 13 13
-82.855713 -102.79558 1646.7198 14 14 14
107.297 -100.536 1647.0601 47 47 47
109.617 -100.80778 1647.4467 41 41 41
112.489 -100.569 1647.51 50 50 50
-88.841972 -97.108528 1644.8713 12 12 12
-86.551918 -98.258774 1646.3873 13 13 13
106.36162 -97.756371 1645.1194 47 47 47
109.91396 -98.641045 1645.7982 44 44 44
112.35834 -98.983368 1645.6234 41 41 41
130.959 -96.195274 1647.9067 208 208 208
133.8882 -96.1819 1647.616 209 209 209
-92.284225 -92.837173 1644.7275 13 13 13
-90.195343 -94.17363 1645.9846 13 13 13
-87.853996 -95.401199 1647.83 13 13 13
106.364 -95.946404 1644.1 41 41 41
119.24275 -93.90184 1646.6587 177 177 177
121.98711 -93.521469 1646.3894 204 204 204
126.09038 -93.831779 1646.1847 210 210 210
130.05231 -93.865654 1645.8071 212 212 212
133.93312 -94.100914 1645.5547 210 210 210
-93.636147 -89.891815 1645.9119 12 12 12
-91.273659 -91.461235 1647.5299 13 13 13
121.83561 -91.569107 1644.3701 198 198 198
125.13325 -91.560921 1644.155 201 201 201
-97.519936 -85.500519 1645.2469 12 12 12
-95.140099 -87.017746 1646.4919 12 12 12
-100.79491 -81.613609 1644.8781 12 12 12
-98.48732 -82.495125 1646.7452 11 11 11
-104.57601 -76.854065 1644.4332 12 12 12
-102.19633 -78.074631 1645.8732 11 11 11
-99.628601 -79.948097 1647.73 12 12 12
-104.595 -75.399803 1644.75 16 16 16
-103.896 -75.425697 1645.33 19 19 19
-384.651 -28.624451 1646.965 201 201 201
-381.86899 -28.950676 1646.9811 205 205 205
-378.29095 -29.244078 1646.9669 188 188 188
-392.63599 -24.8964 1644.36 205 205 205
-389.90079 -25.575249 1644.6475 205 205 205
-385.94556 -26.750069 1645.2239 206 206 206
-381.96219 -27.112932 1645.0634 207 207 207
-378.01434 -27.374828 1644.8817 198 198 198
-375.66498 -27.480301 1645.3049 113 113 113
-365.15979 -4.8189378 1646.4899 51 51 51
-363.93399 -4.22753 1646.35 48 48 48
-364.69501 -3.48943 1646.42 50 50 50
-363.91998 -3.1198702 1646.29 50 50 50
-262.21201 -0.89480901 1645.48 48 48 48
-353.35275 2.4194641 1647.5024 40 40 40
-352.336 4.6368499 1647.99 42 42 42
-341.659 9.0622101 1646.91 39 39 39
-339.44952 11.26475 1645.235 38 38 38
-333.26181 10.530786 1645.95 39 39 39
-331.49701 11.9955 1644.58 41 41 41
-338.1308 13.179579 1644.9821 39 39 39
-332.72351 12.38225 1646.97 38 38 38
-330.76486 14.151281 1645.991 37 37 37
-328.86588 17.724226 1646.3101 37 37 37
-327.50549 18.63175 1645.09 36 36 36
-326.09576 21.2281 1646.4163 36 36 36
-240.69299 61.359699 1647.51 45 45 45
-238.75047 62.361717 1645.72 44 44 44
-236.60449 65.301544 1644.8201 45 45 45
-235.12801 67.13903 1644.8199 44 44 44
-229.16141 65.773499 1647.6699 46 46 46
-233.92915 69.022064 1645.9083 44 44 44
-230.62 71.5242 1644.28 49 49 49
-225.409 70.036102 1644.04 50 50 50
-214.03799 74.069427 1644.8727 45 45 45
-37.435127 -161.93948 1649.2531 30 30 30
-35.095356 -162.05783 1651.0332 26 26 26
-40.566048 -156.761 1648.41 17 17 17
-37.972301 -158.00066 1650.2349 17 17 17
-35.2883 -159.821 1651.46 18 18 18
-41.519268 -153.95686 1649.7449 16 16 16
-39.104 -155.15001 1651.5566 16 16 16
-45.202477 -149.36899 1649.6309 15 15 15
-42.918457 -150.58899 1650.922 15 15 15
-48.86932 -145.16939 1648.9799 16 16 16
-46.548473 -146.40863 1650.6094 15 15 15
-52.786236 -140.86232 1648.5699 16 16 16
-50.251644 -142.09454 1650.0546 15 15 15
-53.843086 -137.73747 1649.8271 15 15 15
-51.468891 -139.13257 1651.3857 15 15 15
-57.221405 -133.72946 1649.4288 16 16 16
-55.154652 -134.74811 1650.9323 17 17 17
-60.940338 -129.17975 1649.1738 16 16 16
-58.674969 -130.48599 1650.5018 16 16 16
-64.631821 -124.77361 1648.886 15 15 15
-62.224915 -126.28117 1650.0138 15 15 15
-68.018402 -120.497 1648.84 15 15 15
-65.727936 -121.88632 1649.931 15 15 15
-63.504753 -123.069 1651.2401 15 15 15
-69.323189 -117.60686 1649.6395 15 15 15
-66.879547 -118.93822 1651.0865 15 15 15
-73.18087 -113.1414 1648.99 14 14 14
-70.983765 -114.175 1650.4646 14 14 14
-76.361687 -109.07383 1648.7401 14 14 14
-74.196045 -110.04504 1650.4418 14 14 14
-71.830002 -111.861 1651.86 14 14 14
-77.859573 -105.90559 1649.694 13 13 13
-75.246239 -107.14899 1651.2567 13 13 13
111.54201 -104.3955 1649.8149 43 43 43
112.688 -104.432 1650.38 52 52 52
-81.652428 -101.69216 1649.3873 13 13 13
-79.164871 -102.9494 1650.918 13 13 13
110.841 -102.49029 1648.8293 39 39 39
112.89117 -102.67367 1649.7617 59 59 59
116.478 -100.096 1651.79 149 149 149
130.713 -100.11 1651.74 207 207 207
133.45032 -100.08533 1651.2767 207 207 207
-85.033119 -97.375244 1649.24 13 13 13
-82.8396 -98.608711 1650.6534 13 13 13
118.39244 -97.465553 1650.1725 175 175 175
122.10303 -97.70295 1650.5767 209 209 209
125.97144 -97.800774 1650.2316 214 214 214
129.8734 -97.938972 1649.7206 208 208 208
133.76535 -98.057732 1649.2877 209 209 209
-89.134491 -93.004799 1648.8301 12 12 12
-86.626862 -94.432114 1650.2101 13 13 13
-83.625603 -95.618599 1651.64 14 14 14
119.185 -95.473045 1648.3867 184 184 184
122.147 -95.483841 1648.5179 207 207 207
124.328 -95.460197 1648.0699 219 219 219
-92.545021 -88.316566 1648.3433 12 12 12
-90.016403 -90.121284 1650.14 12 12 12
-87.327499 -91.575699 1651.86 12 12 12
-93.544067 -85.6717 1649.3888 11 11 11
-91.276581 -86.895058 1651.1979 11 11 11
-96.956757 -81.330139 1649.4664 11 11 11
-94.645889 -82.566772 1650.7706 11 11 11
-100.6976 -76.888245 1648.376 14 14 14
-98.060646 -78.025665 1650.0315 16 16 16
-94.382584 -78.084679 1651.7516 22 22 22
-91.756897 -77.935501 1651.98 27 27 27
-380.81702 -30.121 1648.1832 206 206 206
-378.13702 -30.723261 1648.8981 144 144 144
-356.82166 1.1912696 1651.4567 42 42 42
-354.66956 2.5870242 1649.5699 40 40 40
-353.573 4.6433201 1650.27 39 39 39
-342.647 9.0687599 1648.08 40 40 40
-336.5845 10.19532 1651.2849 40 40 40
-335.21741 10.703036 1649.708 39 39 39
-333.58084 13.714417 1649.868 38 38 38
-331.52301 15.7163 1648.41 36 36 36
-329.48901 19.420401 1649.42 39 39 39
-329.25201 20.167599 1650.105 36 36 36
-327.03699 21.622299 1648.34 35 35 35
-236.09 59.290401 1651.62 44 44 44
-235.16032 59.242535 1650.3099 46 46 46
-240.42349 62.490501 1648.1899 42 42 42
-233.69049 62.105713 1651.2601 46 46 46
-232.4505 64.978325 1650.78 45 45 45
-230.57535 65.840118 1649.3063 46 46 46
-234.14301 70.227203 1648.27 44 44 44
-228.22549 68.380852 1648.38 45 45 45
-227.535 70.2379 1648.73 47 47 47
-223.0685 129.7695 1650.525 39 39 39
-220.448 133.071 1650.29 42 42 42
-219.49475 134.16125 1650.075 38 38 38
-33.50066 -164.5358 1654.276 39 39 39
-30.936899 -164.67 1655.635 39 39 39
-32.954693 -161.88039 1653.4539 24 24 24
-30.827644 -162.60866 1655.2308 25 25 25
-36.71516 -156.82359 1652.5901 17 17 17
-34.516167 -158.17303 1654.1154 18 18 18
-40.470848 -152.49399 1652.13 14 14 14
-37.798714 -153.85204 1653.9661 16 16 16
-35.495266 -155.51534 1655.4667 17 17 17
-41.468239 -149.60316 1653.6819 15 15 15
-39.056965 -151.26367 1654.8617 15 15 15
-45.073029 -145.48212 1653.071 16 16 16
-42.979023 -146.29236 1654.6163 16 16 16
-48.571045 -140.97827 1653.2543 14 14 14
-46.385746 -142.29611 1654.2269 15 15 15
-43.892399 -143.95799 1655.96 16 16 16
-52.654549 -136.61749 1652.2251 16 16 16
-50.024303 -137.9481 1653.8019 15 15 15
-47.5774 -139.47301 1655.45 16 16 16
-53.547318 -133.70294 1653.4515 16 16 16
-51.440037 -134.88625 1654.7887 16 16 16
-57.278522 -129.21214 1653.3256 16 16 16
-54.711514 -130.84207 1654.5088 16 16 16
-60.518391 -125.30837 1652.8201 16 16 16
-58.270405 -126.4146 1654.5557 15 15 15
-64.477051 -121.13451 1652.5449 15 15 15
-62.135071 -122.11062 1654.1134 15 15 15
-59.421249 -123.5865 1655.74 15 15 15
-68.151398 -116.307 1652.13 14 14 14
-65.715973 -117.73878 1653.8296 14 14 14
-63.54372 -118.8884 1655.2161 15 15 15
-68.937263 -113.73871 1653.313 14 14 14
-66.84272 -114.70751 1654.8159 14 14 14
-72.745399 -109.1022 1652.5599 14 14 14
-70.642517 -110.34438 1654.1658 14 14 14
-76.277802 -104.88 1652.3101 13 13 13
-74.104691 -106.02621 1654.092 13 13 13
-71.615723 -107.29926 1655.515 14 14 14
114.697 -105.2392 1653.752 72 72 72
127.89 -104.056 1655.84 211 211 211
130.1082 -104.053 1655.7522 210 210 210
133.04933 -104.03699 1655.4332 213 213 213
-80.697899 -100.073 1652.12 12 12 12
-77.986115 -101.74464 1653.6957 12 12 12
-75.370056 -103.35661 1655.1179 13 13 13
115.38617 -103.04783 1653.7633 90 90 90
118.1396 -101.5093 1654.3298 181 181 181
122.10076 -101.44175 1654.0552 207 207 207
126.0215 -101.79639 1653.9476 210 210 210
129.87968 -101.91022 1653.7316 207 207 207
133.17633 -101.98528 1653.3573 211 211 211
-81.140877 -97.621658 1653.6599 12 12 12
-79.116913 -98.65155 1655.125 13 13 13
118.73 -99.389305 1652.27 188 188 188
121.18333 -99.38166 1652.0967 205 205 205
-85.284164 -93.174904 1653.1472 12 12 12
-82.726097 -94.275528 1654.6621 12 12 12
-88.52301 -89.03064 1652.5428 12 12 12
-86.106773 -90.060623 1654.2401 12 12 12
-83.451096 -91.408295 1655.5649 11 11 11
-52.378151 -88.452805 1655.8999 25 25 25
-49.781979 -88.440811 1655.696 25 25 25
-46.085159 -88.444801 1655.792 26 26 26
-43.8703 -88.453697 1655.97 28 28 28
-89.579033 -85.872566 1653.6903 12 12 12
-86.719849 -85.663506 1655.5269 15 15 15
-81.970665 -84.633644 1655.6469 20 20 20
-77.642517 -84.86628 1655.4248 21 21 21
-74.181961 -85.102608 1655.262 21 21 21
-69.876228 -85.305099 1654.9314 20 20 20
-66.030045 -85.451263 1654.9381 21 21 21
-61.960423 -85.817017 1654.8986 23 23 23
-57.816582 -86.440216 1655.074 23 23 23
-54.377342 -87.054756 1655.2561 25 25 25
-50.430733 -87.377129 1655.1432 26 26 26
-47.5518 -87.681999 1655.34 28 28 28
-93.366745 -81.473808 1652.6456 13 13 13
-90.067146 -82.032349 1653.8466 17 17 17
-85.943985 -81.710472 1653.7866 19 19 19
-81.979668 -82.302788 1653.865 20 20 20
-77.919098 -82.728088 1653.8385 21 21 21
-74.204956 -83.085876 1653.7412 21 21 21
-70.365982 -83.497063 1654.004 21 21 21
-66.0131 -83.952606 1654.5339 24 24 24
-93.098068 -79.125755 1652.1641 19 19 19
-90.222153 -79.128738 1652.2649 20 20 20
-86.992599 -79.441147 1652.665 24 24 24
-362.68625 -4.8060021 1655.1399 41 41 41
-361.55103 -2.7648301 1655.276 41 41 41
-359.82501 -0.537902 1654.9399 40 40 40
-358.00549 0.9452365 1653.4651 41 41 41
-355.595 3.90926 1652.72 42 42 42
-350.4798 2.8755162 1654.7399 40 40 40
-355.30701 4.6513853 1653.12 42 42 42
-349.43048 5.0287848 1655.45 40 40 40
-341.15182 6.5114989 1655.3082 40 40 40
-339.59198 6.8737602 1653.1951 40 40 40
-345.14099 9.0953798 1652.87 40 40 40
-338.37387 9.9491444 1654.2872 39 39 39
-330.7507 11.087001 1655.7567 35 35 35
-336.74731 12.316033 1654.5299 39 39 39
-330.009 12.0763 1655.79 31 31 31
-237.157 59.372398 1653.88 46 46 46
-236.97786 60.887016 1654.8429 46 46 46
-234.77888 62.436665 1652.821 46 46 46
-224.80901 66.838997 1655.98 54 54 54
-220.8916 134.67081 1653.5859 39 39 39
-29.41391 -165.06979 1657.4241 36 36 36
-26.695728 -164.8494 1658.949 30 30 30
-29.332733 -161.6537 1657.353 20 20 20
-27.046289 -162.30493 1659.2583 19 19 19
-32.545059 -157.5351 1657.1238 19 19 19
-30.307091 -158.47997 1658.6259 18 18 18
-36.512398 -152.5605 1656.89 16 16 16
-34.122684 -154.14041 1658.0969 18 18 18
-40.2136 -148.48 1656.84 16 16 16
-37.753735 -149.78758 1657.7893 16 16 16
-35.400871 -150.93443 1659.3958 18 18 18
-41.21534 -145.61128 1657.4634 16 16 16
-38.982243 -146.77736 1658.9281 16 16 16
-45.084255 -141.08971 1657.0643 16 16 16
-42.929676 -142.16255 1658.549 16 16 16
-48.608067 -136.88634 1656.9933 15 15 15
-46.322124 -137.98715 1658.2507 16 16 16
-43.989033 -139.08699 1659.7035 16 16 16
-52.053947 -132.54251 1656.7051 17 17 17
-49.701862 -134.02429 1657.7231 16 16 16
-47.500202 -134.7885 1659.3099 16 16 16
-53.306129 -129.6526 1657.3175 16 16 16
-50.731472 -130.89011 1659.2488 15 15 15
-57.247192 -124.93072 1657.079 16 16 16
-54.738564 -126.49446 1658.4889 15 15 15
-60.65855 -121.16087 1656.7238 15 15 15
-58.266083 -122.08559 1658.3856 15 15 15
-55.851601 -123.506 1659.66 17 17 17
-64.610802 -116.58 1656.05 15 15 15
-61.798584 -117.89552 1657.7571 15 15 15
-59.36615 -119.22701 1659.4525 15 15 15
-65.518341 -113.51636 1657.3773 14 14 14
-63.288513 -114.99783 1658.4708 14 14 14
-69.019814 -109.402 1657.136 14 14 14
-66.87471 -110.40242 1658.5214 14 14 14
118.54501 -108.75134 1659.8932 174 174 174
128.94499 -108.01633 1659.8101 206 206 206
-72.785675 -104.7995 1656.9125 13 13 13
-70.127449 -106.57332 1658.6281 13 13 13
118.38162 -105.63708 1658.0858 170 170 170
122.0605 -105.74813 1658.375 206 206 206
125.89839 -105.6283 1657.7612 209 209 209
130.103 -106.29378 1657.8318 209 209 209
132.90759 -106.08299 1657.333 209 209 209
-76.639725 -100.8725 1656.2 12 12 12
-74.028801 -101.91293 1658.1141 13 13 13
-71.433296 -103.506 1659.9301 14 14 14
118.65725 -103.3365 1656.3625 192 192 192
121.23899 -103.32767 1656.1666 202 202 202
-77.568283 -97.718628 1657.7559 12 12 12
-75.332809 -98.722153 1659.2551 13 13 13
-22.092499 -96.055237 1659.6234 32 32 32
-18.01334 -96.421707 1659.5599 34 34 34
-13.79091 -96.496147 1659.3745 38 38 38
-9.8558102 -96.781288 1659.3802 42 42 42
-6.2052894 -97.05938 1659.2615 42 42 42
-2.2826824 -97.733688 1659.3729 42 42 42
2.1722066 -98.615349 1659.7544 43 43 43
5.1223497 -98.881737 1659.7981 42 42 42
-80.99073 -93.582214 1657.2594 12 12 12
-78.843384 -94.541878 1658.6993 12 12 12
-52.503601 -92.368546 1659.8201 25 25 25
-49.900444 -92.354477 1659.5859 24 24 24
-46.10519 -92.673233 1659.4188 25 25 25
-41.941364 -92.85231 1659.0686 27 27 27
-38.014458 -93.042473 1658.7034 27 27 27
-33.855553 -93.358452 1658.6117 29 29 29
-29.789253 -93.563599 1658.4214 29 29 29
-26.211611 -93.820473 1658.3135 29 29 29
-22.210888 -94.235306 1658.4224 31 31 31
-18.187815 -94.6987 1658.59 32 32 32
-14.2996 -95.084282 1658.8625 36 36 36
-10.9683 -95.303345 1659.46 37 37 37
-84.864838 -88.758667 1656.7001 12 12 12
-82.00985 -89.983383 1658.5245 13 13 13
-78.083305 -88.869331 1659.5 20 20 20
-73.986 -89.005524 1659.1217 19 19 19
-69.729118 -89.251472 1658.9668 20 20 20
-66.17453 -89.339249 1658.5126 21 21 21
-62.006229 -89.644234 1658.2296 22 22 22
-58.008724 -90.058235 1658.1719 23 23 23
-54.026421 -90.141869 1657.7975 24 24 24
-49.838997 -90.391899 1657.5676 25 25 25
-46.125137 -90.370651 1657.2024 26 26 26
-42.089947 -90.281204 1656.9426 26 26 26
-38.067825 -90.635803 1657.0258 28 28 28
-33.899319 -91.086571 1656.8325 29 29 29
-30.194977 -91.447098 1656.6799 29 29 29
-85.577553 -86.078194 1656.754 15 15 15
-82.144325 -86.635941 1657.6346 18 18 18
-78.061203 -86.753662 1657.3995 19 19 19
-73.905556 -87.059723 1657.3412 20 20 20
-69.999619 -87.222252 1656.9532 20 20 20
-66.10051 -87.390854 1656.6801 21 21 21
-62.018017 -87.744385 1656.41 23 23 23
-58.674999 -87.725906 1656.0901 24 24 24
-365.70844 -6.1597099 1658.5388 39 39 39
-363.883 -5.7382398 1656.3199 41 41 41
-363.47449 -3.14097 1657.885 40 40 40
-360.16101 0.204376 1656.48 43 43 43
-352.45499 3.1804399 1659.1 41 41 41
-351.40601 3.9208801 1657.6899 43 43 43
-338.02551 3.5508499 1658.355 40 40 40
-351.14468 4.9151063 1658.8267 40 40 40
-342.73358 7.0447741 1658.61 40 40 40
-337.41199 4.6670899 1659.03 41 41 41
-341.13199 8.6255436 1657.64 39 39 39
-332.48935 10.600614 1656.9501 38 38 38
-331.67499 11.3405 1656.63 37 37 37
-338.28052 12.46415 1657.765 38 38 38
-330.22299 13.945708 1657.4901 35 35 35
-242.79099 55.492554 1659.365 45 45 45
-231.66499 58.742599 1657.16 48 48 48
-236.97333 62.971836 1657.7734 47 47 47
-235.98 63.151199 1656.03 48 48 48
-229.20499 62.972675 1658.8662 51 51 51
-227.17151 63.546501 1656.9451 52 52 52
-236.515 64.778801 1659.77 47 47 47
-228.6656 65.041275 1659.134 53 53 53
-226.30144 66.094124 1657.376 51 51 51
-218.66451 66.18383 1658.3016 48 48 48
-224.54967 69.132698 1657.71 51 51 51
-223.34599 69.806396 1656.14 51 51 51
-216.88501 70.2015 1659.8534 47 47 47
-214.59618 70.965332 1657.5216 46 46 46
-213.77325 73.059746 1658.8217 42 42 42
-25.280811 -165.9455 1661.0037 36 36 36
-22.961393 -165.64813 1662.5026 29 29 29
-25.202404 -161.6718 1661.7316 19 19 19
-23.101044 -163.25632 1663.0757 19 19 19
-29.179255 -157.16928 1661.1082 17 17 17
-27.078085 -158.58751 1662.3707 18 18 18
-32.442558 -153.1534 1660.9241 17 17 17
-30.351669 -154.2858 1662.3287 16 16 16
-36.591301 -148.44 1660.5549 18 18 18
-33.942822 -150.07565 1662.0507 17 17 17
-31.459299 -151.347 1663.95 16 16 16
-40.2929 -144.32401 1660.1899 16 16 16
-37.676979 -145.49944 1661.4366 17 17 17
-35.377102 -146.61613 1663.3485 18 18 18
-40.900585 -141.60179 1661.2374 17 17 17
-38.928879 -142.31325 1662.7393 17 17 17
-44.5578 -136.8773 1661.1971 17 17 17
-42.257633 -138.43616 1662.5162 16 16 16
-48.4533 -132.82199 1660.23 18 18 18
-45.907207 -134.08492 1662.0958 16 16 16
-43.353901 -135.715 1663.87 16 16 16
-52.16465 -128.37601 1660.3049 16 16 16
-49.683666 -129.56174 1661.7244 15 15 15
-47.326813 -131.09637 1663.0625 15 15 15
-53.135918 -125.46055 1661.3354 15 15 15
-50.76046 -126.7234 1662.976 15 15 15
-56.922199 -121.2028 1660.6279 14 14 14
-54.491261 -122.17485 1662.5632 15 15 15
-60.3367 -116.533 1660.6799 14 14 14
-58.09565 -118.10171 1662.1221 14 14 14
-55.735001 -119.092 1663.6366 14 14 14
103.93 -116.421 1663.71 34 34 34
106.47758 -116.63027 1663.6158 37 37 37
108.384 -116.7825 1663.48 45 45 45
-64.037201 -112.437 1660.4399 13 13 13
-61.696457 -113.88919 1661.8077 14 14 14
-59.690838 -114.86466 1663.4033 14 14 14
75.275551 -112.6865 1663.885 37 37 37
76.380302 -112.67 1663.63 37 37 37
103.20276 -114.32242 1662.0326 47 47 47
105.94204 -114.2679 1661.8528 43 43 43
108.75975 -114.64574 1662.15 49 49 49
123.2875 -113.0925 1663.64 173 173 173
124.046 -112.734 1663.8199 190 190 190
130.75533 -112.745 1663.8467 207 207 207
132.229 -112.732 1663.63 203 203 203
-65.138039 -109.54041 1661.5231 14 14 14
-62.719807 -110.97011 1662.9391 14 14 14
43.634899 -108.155 1663.13 42 42 42
46.047306 -108.80931 1663.4979 42 42 42
49.967117 -108.92917 1663.5491 41 41 41
53.92009 -109.197 1663.4764 42 42 42
57.536236 -109.56733 1663.7666 42 42 42
60.023701 -109.707 1663.99 39 39 39
103.3415 -111.7295 1660.3149 47 47 47
104.465 -111.741 1660.46 45 45 45
119.055 -109.01199 1660.0865 170 170 170
122.23763 -109.63893 1661.6411 198 198 198
126.07191 -110.07722 1662.0535 207 207 207
129.9368 -110.32331 1661.8536 206 206 206
132.37029 -110.24986 1661.4386 206 206 206
-69.25296 -105.19145 1661.0192 13 13 13
-66.739655 -106.37079 1662.6567 13 13 13
10.190821 -104.47319 1663.8259 49 49 49
14.153867 -104.5815 1663.5668 46 46 46
18.09252 -104.77599 1663.2434 47 47 47
22.076822 -105.11772 1663.0586 42 42 42
25.91993 -105.32982 1662.7913 37 37 37
29.535818 -105.20456 1662.2534 44 44 44
32.705631 -104.602 1661.8433 46 46 46
39.9161 -105.922 1663.1 45 45 45
42.225033 -106.82122 1662.9355 44 44 44
45.575874 -107.11087 1662.7638 40 40 40
48.087101 -107.397 1662.85 38 38 38
-72.384804 -101.13226 1660.5176 12 12 12
-70.1978 -102.02145 1662.3425 13 13 13
-67.633568 -103.49933 1663.8301 13 13 13
-24.7521 -100.019 1663.8966 30 30 30
-22.520401 -100.013 1663.8066 31 31 31
-17.688675 -100.75825 1663.855 33 33 33
-13.703128 -100.84371 1663.5157 34 34 34
-9.8789921 -101.09239 1663.2449 36 36 36
-5.9906702 -101.33439 1662.9939 38 38 38
-1.9771128 -101.50532 1662.6398 41 41 41
2.0106847 -101.78136 1662.3547 43 43 43
6.1594119 -102.09019 1662.1628 44 44 44
10.177866 -102.11736 1661.7638 44 44 44
13.888852 -102.10539 1661.5586 45 45 45
17.890741 -102.51921 1661.457 47 47 47
21.947979 -102.89114 1661.385 43 43 43
25.840069 -103.2822 1661.345 36 36 36
29.854826 -103.59925 1661.65 33 33 33
-73.653831 -97.809456 1661.9009 12 12 12
-71.380005 -99.244347 1663.08 12 12 12
-53.371727 -96.300415 1663.7074 23 23 23
-49.766483 -96.400787 1663.3282 23 23 23
-45.780704 -96.727737 1663.2407 24 24 24
-41.720531 -96.938301 1662.8835 25 25 25
-38.012859 -97.069138 1662.6433 26 26 26
-34.014595 -97.332176 1662.3964 29 29 29
-29.860466 -97.56089 1662.1814 29 29 29
-26.205879 -97.667892 1661.8154 29 29 29
-22.007027 -98.178185 1661.7697 30 30 30
-18.038755 -98.783241 1661.8737 33 33 33
-14.031518 -98.803795 1661.412 36 36 36
-9.8668098 -99.1138 1661.2068 39 39 39
-6.2603183 -99.147057 1660.88 41 41 41
-2.0726178 -99.456139 1660.731 42 42 42
1.7611521 -99.697319 1660.6284 44 44 44
6.4589348 -99.611961 1660.2288 40 40 40
9.9221983 -99.686867 1660.4401 35 35 35
-77.473099 -93.476494 1661.0483 12 12 12
-74.383545 -93.862015 1662.8557 16 16 16
-70.070648 -93.294327 1662.9579 19 19 19
-65.837868 -93.549294 1662.7277 20 20 20
-61.875648 -93.633789 1662.4625 20 20 20
-58.146271 -93.980515 1662.0564 22 22 22
-54.152466 -94.060005 1661.6179 22 22 22
-49.956493 -94.312363 1661.428 24 24 24
-46.034744 -94.634125 1661.3151 25 25 25
-42.040501 -94.701851 1660.8728 25 25 25
-38.059311 -95.004959 1660.64 26 26 26
-34.239471 -95.258804 1660.4657 28 28 28
-30.382401 -95.345032 1660.14 29 29 29
-78.143707 -90.703491 1660.7689 18 18 18
-74.080292 -90.972626 1661.2097 20 20 20
-70.169464 -91.140373 1660.9282 20 20 20
-65.888237 -91.306358 1660.6157 21 21 21
-61.798225 -91.663475 1660.4039 21 21 21
-368.71649 -7.2532425 1662.865 40 40 40
-366.97699 -6.4965 1660.12 38 38 38
-360.604 -4.6436996 1663.72 42 42 42
-359.61349 -4.64048 1662.63 41 41 41
-365.10101 -3.148865 1661.865 42 42 42
-358.83902 -2.77736 1663.1167 42 42 42
-349.62369 -0.78734231 1662.3101 43 43 43
-345.74701 -3.5204999 1662.98 40 40 40
-336.05499 -0.53827298 1663.47 39 39 39
-356.60052 0.20550701 1662.645 41 41 41
-353.66934 3.1845067 1661.2666 41 41 41
-349.12103 1.0583509 1663.1658 44 44 44
-347.52576 2.8145125 1662.4875 43 43 43
-337.82751 2.0690365 1662.9351 40 40 40
-352.82031 5.1728301 1661.9967 41 41 41
-344.75848 6.5376048 1661.85 41 41 41
-338.04373 6.2896495 1662.1357 40 40 40
-342.59399 9.1401205 1661.0834 38 38 38
-336.92151 8.4000053 1662.17 40 40 40
-245.52815 54.615673 1662.7367 44 44 44
-243.267 55.8876 1660.0601 44 44 44
-244.823 56.360252 1663.0249 43 43 43
-243.043 57.035873 1661.0775 45 45 45
-234.05989 58.860023 1662.528 46 46 46
-232.98923 61.244019 1662.4556 46 46 46
-231.17334 62.458035 1660.7367 46 46 46
-224.51233 61.916096 1663.0133 48 48 48
-223.02779 62.753582 1661.598 46 46 46
-228.627 66.842567 1662.0933 50 50 50
-227.3165 67.403046 1660.6951 51 51 51
-221.15219 66.038834 1662.066 46 46 46
-219.31401 67.542732 1661.3267 49 49 49
-226.35675 68.935371 1661.86 49 49 49
-218.457 68.907349 1661.4199 51 51 51
-212.8055 75.565048 1660.9399 37 37 37
-18.47945 -168.06 1667.2424 40 40 40
-20.959835 -166.28401 1664.899 31 31 31
-18.596275 -165.88327 1666.6195 25 25 25
-24.030899 -160.339 1664.5601 20 20 20
-21.627018 -161.8308 1665.7332 19 19 19
-19.5987 -162.84967 1667.39 19 19 19
-25.122334 -157.70364 1665.4459 18 18 18
-22.727989 -158.88661 1667.304 18 18 18
-29.167963 -153.06039 1664.782 16 16 16
-26.811148 -154.39505 1666.3304 16 16 16
-32.712067 -148.92883 1664.6515 18 18 18
-30.246174 -150.21605 1666.188 18 18 18
-27.8029 -151.692 1667.75 18 18 18
-33.72403 -145.78308 1665.6941 17 17 17
-31.373758 -147.0352 1667.392 18 18 18
-37.431797 -141.71925 1665.05 16 16 16
-35.296261 -142.76601 1666.459 16 16 16
-40.93684 -137.18529 1664.9572 16 16 16
-38.851902 -138.45493 1666.4235 15 15 15
-44.541882 -132.80116 1664.6427 16 16 16
-42.119461 -134.32195 1666.2583 15 15 15
-48.566601 -128.30299 1664.1899 16 16 16
-45.832626 -129.82722 1665.9231 15 15 15
-43.44315 -131.15549 1667.385 16 16 16
-49.555996 -125.38855 1665.5577 15 15 15
-47.152981 -126.81364 1666.8536 14 14 14
-52.98814 -121.09691 1665.3259 14 14 14
-50.769424 -122.5786 1666.598 14 14 14
103.442 -120.434 1667.78 36 36 36
106.09186 -120.52429 1667.5157 38 38 38
-56.52145 -116.95333 1664.9349 14 14 14
-54.150555 -118.31824 1666.5095 14 14 14
71.355499 -116.679 1667.85 46 46 46
73.957764 -116.668 1667.665 45 45 45
78.048904 -117.0266 1667.4109 45 45 45
81.954178 -116.95701 1666.8517 45 45 45
85.970192 -117.42211 1667.0087 40 40 40
90.083588 -117.62601 1666.9379 39 39 39
93.912109 -117.92643 1667.1155 40 40 40
98.16761 -118.50691 1666.9789 41 41 41
101.97173 -118.082 1665.7551 37 37 37
105.86614 -118.58299 1665.678 37 37 37
108.511 -118.40649 1665.4 61 61 61
130.33299 -116.749 1667.92 211 211 211
-60.461899 -113.06 1664.1899 14 14 14
-58.087124 -114.08607 1665.8295 14 14 14
-55.37075 -115.52901 1667.6599 14 14 14
50.741299 -112.72318 1666.5133 42 42 42
54.154819 -112.84673 1666.478 42 42 42
57.836662 -113.28694 1666.4711 43 43 43
62.063595 -113.92716 1666.5703 42 42 42
66.167213 -114.20161 1666.2772 43 43 43
69.947578 -114.22886 1665.95 45 45 45
73.905472 -114.50997 1665.8749 43 43 43
77.960098 -114.66295 1665.5549 43 43 43
81.957909 -114.95733 1665.5114 41 41 41
85.995514 -115.46188 1665.6399 38 38 38
88.7826 -115.8125 1665.88 40 40 40
123.439 -114.348 1665.66 166 166 166
125.98379 -114.32661 1665.6969 193 193 193
129.67615 -114.51605 1665.9155 207 207 207
-61.590569 -109.6955 1665.5979 14 14 14
-59.45462 -110.6615 1667.2767 14 14 14
10.588203 -108.44675 1667.7775 45 45 45
14.106244 -108.76755 1667.6101 46 46 46
18.178562 -108.87122 1667.2323 45 45 45
22.223967 -109.23995 1667.0475 44 44 44
25.457012 -109.58739 1666.9364 41 41 41
42.915401 -108.215 1664.0601 45 45 45
46.659824 -110.5045 1664.915 42 42 42
50.000141 -110.85833 1664.6141 42 42 42
54.092091 -110.8587 1664.5811 42 42 42
57.993198 -111.03525 1664.4033 43 43 43
61.900558 -111.22428 1664.4111 43 43 43
65.991592 -111.5946 1664.3441 43 43 43
69.826279 -111.874 1664.5057 41 41 41
-65.029564 -105.51592 1665.3759 13 13 13
-62.79108 -106.43392 1666.875 13 13 13
-20.7134 -104.73 1667.92 31 31 31
-18.10268 -104.71599 1667.7041 32 32 32
-13.62905 -104.883 1667.4026 33 33 33
-9.715867 -105.23792 1667.125 32 32 32
-6.1765313 -105.40759 1666.8627 38 38 38
-1.9307196 -105.53856 1666.5756 36 36 36
2.0157273 -105.74425 1666.2953 38 38 38
6.110074 -106.10342 1666.0763 44 44 44
10.204318 -106.47056 1665.9955 46 46 46
13.84517 -106.50522 1665.6084 46 46 46
17.954935 -106.71978 1665.2798 47 47 47
22.104382 -107.05801 1665.1008 42 42 42
25.540913 -107.23188 1664.7662 42 42 42
39.216202 -106.039 1664.9399 48 48 48
41.4841 -107.618 1666.33 47 47 47
-69.026939 -100.82016 1664.5817 13 13 13
-66.351311 -102.10115 1666.3833 12 12 12
-63.5625 -103.979 1667.6 13 13 13
-53.128338 -100.25533 1667.6901 22 22 22
-49.88937 -100.35983 1667.3867 22 22 22
-46.036839 -100.60099 1667.2935 23 23 23
-41.757454 -100.83492 1666.9216 25 25 25
-38.102779 -101.01769 1666.5264 26 26 26
-34.095036 -101.28094 1666.2809 28 28 28
-29.998785 -101.64873 1666.223 29 29 29
-25.948326 -102.12893 1666.0999 29 29 29
-21.804188 -102.36916 1665.8594 31 31 31
-18.151978 -102.64491 1665.7454 33 33 33
-14.065514 -102.76063 1665.405 34 34 34
-9.8901176 -103.06561 1665.1151 36 36 36
-6.3551331 -103.23792 1664.895 36 36 36
-2.2462351 -103.43428 1664.521 37 37 37
2.0131621 -103.7574 1664.2838 40 40 40
4.2434902 -103.74 1664 43 43 43
-72.356003 -96.337799 1664.1899 14 14 14
-70.005882 -97.724655 1665.3907 14 14 14
-66.234306 -97.855423 1666.577 18 18 18
-61.914955 -97.734665 1666.203 21 21 21
-57.983688 -97.985382 1666.1702 21 21 21
-53.977932 -98.107964 1665.709 21 21 21
-50.154888 -98.314331 1665.3751 22 22 22
-46.087536 -98.658531 1665.1884 24 24 24
-42.012123 -98.863968 1664.8536 24 24 24
-38.315502 -98.987946 1664.561 26 26 26
-34.05537 -99.305397 1664.3651 29 29 29
-30.703999 -99.290146 1664.12 28 28 28
-72.729996 -95.226456 1664.2524 15 15 15
-70.150589 -95.258469 1664.8362 20 20 20
-66.417976 -95.425491 1664.5413 20 20 20
-61.946918 -95.598442 1664.358 21 21 21
-370.181 -8.0067101 1664.36 41 41 41
-362.42749 -4.652905 1666.9025 43 43 43
-360.94476 -2.9710724 1667.0375 42 42 42
-359.11499 -1.2874153 1665.5651 41 41 41
-352.638 -0.540905 1667.0699 46 46 46
-351.26001 -0.53987598 1664.12 47 47 47
-346.5014 -1.88556 1667.3441 40 40 40
-338.00937 -0.78808069 1665.6733 40 40 40
-358.677 0.205965 1667.04 40 40 40
-349.97424 2.2806571 1665.5767 44 44 44
-337.25 0.80489004 1666.3978 40 40 40
-335.73999 2.07357 1665.64 37 37 37
-346.84067 6.0534797 1665.2217 41 41 41
-340.491 6.1784768 1665.52 40 40 40
-339.66699 6.6748099 1665.1768 39 39 39
-338.68002 8.9199438 1666.5 38 38 38
-233.59351 51.223499 1665.6599 45 45 45
-248.6655 53.491451 1666.2251 44 44 44
-247.27333 54.452087 1665.2516 45 45 45
-239.448 55.006802 1667.28 47 47 47
-233.54866 52.883068 1667.1068 48 48 48
-245.36865 57.326168 1665.87 45 45 45
-243.868 58.258099 1664.15 44 44 44
-236.90601 57.914825 1665.2 45 45 45
-235.64551 58.623947 1664.225 43 43 43
-233.3345 63.1688 1666.385 46 46 46
-225.972 62.335407 1666.2419 51 51 51
-228.989 67.939796 1664.71 51 51 51
-224.82475 64.865425 1667.155 49 49 49
-223.03262 65.410858 1664.9561 46 46 46
-228.22601 69.051056 1664.6 48 48 48
-227.41901 69.404198 1664.17 49 49 49
-16.6283 -168.187 1668.5 42 42 42
-14.03443 -168.70161 1670.6439 37 37 37
-16.84133 -165.62772 1668.5286 22 22 22
-14.568691 -166.27231 1670.4814 21 21 21
-20.353001 -160.683 1668.14 20 20 20
-18.017849 -161.90201 1669.759 18 18 18
-15.906475 -162.841 1671.135 19 19 19
-24.083599 -156.21899 1668.3 18 18 18
-21.467215 -157.81358 1669.3744 16 16 16
-19.341719 -158.867 1671.028 17 17 17
-24.791624 -153.54707 1669.3923 16 16 16
-22.313309 -155.01691 1670.7651 16 16 16
-28.883316 -149.00356 1668.6815 17 17 17
-26.620268 -150.3131 1670.1539 17 17 17
-32.291599 -144.68201 1668.64 16 16 16
-30.039135 -146.09781 1669.9026 17 17 17
-27.611732 -147.28 1671.3134 17 17 17
-36.0186 -140.573 1668.5699 18 18 18
-33.484417 -141.66563 1669.7396 16 16 16
-31.295359 -143.1886 1671.2461 17 17 17
-37.168415 -137.53561 1669.2291 15 15 15
-34.868431 -138.6581 1670.6871 15 15 15
-40.993881 -132.88234 1668.7983 15 15 15
-38.337616 -134.13376 1670.6116 15 15 15
-44.217651 -129.00699 1668.515 15 15 15
-42.109924 -129.95836 1669.9712 15 15 15
-39.558533 -131.57967 1671.2167 15 15 15
-45.735485 -125.79283 1669.5392 14 14 14
-43.290802 -127.095 1671.1699 15 15 15
103.327 -124.4675 1671.875 41 41 41
105.55725 -124.45274 1671.6449 39 39 39
-49.264896 -121.34914 1669.504 14 14 14
-47.036255 -122.83051 1670.7242 14 14 14
73.770462 -120.6932 1671.7961 46 46 46
78.159492 -120.92334 1671.4778 47 47 47
81.962677 -121.0239 1671.099 48 48 48
86.281471 -121.22761 1670.756 46 46 46
90.286148 -121.62016 1670.616 42 42 42
93.88028 -121.72366 1670.277 39 39 39
97.981194 -122.08871 1670.0952 40 40 40
102.01324 -122.13514 1669.8149 39 39 39
105.67911 -122.43978 1669.6694 37 37 37
108.007 -122.025 1669.0699 85 85 85
125.7735 -120.00549 1671.8051 210 210 210
-53.037262 -116.98259 1669.2799 14 14 14
-50.610352 -118.51835 1670.4381 13 13 13
31.039213 -116.53825 1670.1838 39 39 39
33.925457 -118.69929 1671.1357 40 40 40
51.020741 -117.3416 1671.1179 38 38 38
54.015438 -116.9361 1670.5815 42 42 42
57.897381 -117.35033 1670.474 43 43 43
62.179379 -117.80757 1670.3584 45 45 45
66.167694 -118.2425 1670.2428 44 44 44
69.889931 -118.37927 1669.9371 45 45 45
74.049751 -118.67696 1669.702 47 47 47
78.14846 -119.03921 1669.504 46 46 46
81.863358 -119.01479 1669.1106 46 46 46
85.957649 -119.37375 1668.86 45 45 45
89.736191 -119.52586 1668.7041 40 40 40
93.769485 -119.71741 1668.342 38 38 38
96.000099 -119.708 1668.1801 39 39 39
111.914 -119.231 1671.6801 161 161 161
114.14748 -117.37216 1670.3826 192 192 192
117.92119 -117.5374 1670.5959 208 208 208
121.92403 -117.65883 1670.4025 197 197 197
126.10323 -118.172 1669.8915 199 199 199
128.72099 -117.88799 1669.278 201 201 201
-56.638615 -113.09884 1668.4482 13 13 13
-54.114727 -114.1464 1670.3464 13 13 13
-51.771801 -115.441 1671.8101 13 13 13
7.9999299 -112.447 1671.86 41 41 41
10.23992 -112.434 1671.666 44 44 44
14.253437 -112.69838 1671.4238 45 45 45
18.077635 -112.76917 1671.0724 44 44 44
22.183002 -113.132 1670.9027 44 44 44
25.896862 -113.14713 1669.6414 37 37 37
28.660885 -114.61272 1669.1384 40 40 40
50.657959 -114.2142 1669.084 41 41 41
