ply
format ascii 1.0
comment PCL generated
element vertex 1196
property float x
property float y
property float z
property uchar red
property uchar green
property uchar blue
element camera 0
property float view_px
property float view_py
property float view_pz
property float x_axisx
property float x_axisy
property float x_axisz
property float y_axisx
property float y_axisy
property float y_axisz
property float z_axisx
property float z_axisy
property float z_axisz
property float focal
property float scalex
property float scaley
property float centerx
property float centery
property int viewportx
property int viewporty
property float k1
property float k2
end_header
-221.84801 -4.5319705 1312.3772 22 22 22
-217.95967 -4.5303388 1312.1234 23 23 23
-215.58649 -4.5297298 1312.075 23 23 23
-308.6944 -0.78431737 1315.9041 48 48 48
-305.86432 -1.1887412 1315.7096 51 51 51
-301.9895 -1.3355242 1315.3828 51 51 51
-297.87628 -1.6761433 1315.1193 50 50 50
-293.9935 -1.8789628 1314.8564 50 50 50
-289.95068 -2.1598475 1314.5354 52 52 52
-285.92322 -2.2623255 1314.1049 50 50 50
-281.98166 -2.1312814 1313.6992 48 48 48
-277.95407 -2.2187037 1313.254 47 47 47
-274.01462 -2.1655259 1312.8035 46 46 46
-270.09769 -2.2036283 1312.4894 44 44 44
-266.21753 -2.3966243 1312.4093 44 44 44
-262.27917 -1.8941435 1312.2401 35 35 35
-258.2117 -1.894985 1312.8459 21 21 21
-254.16328 -3.48089 1315.358 17 17 17
-250.10724 -3.686677 1315.2708 20 20 20
-245.86592 -3.5071332 1315.2278 21 21 21
-241.99045 -3.3381894 1315.1456 21 21 21
-238.08716 -3.3368697 1314.9087 21 21 21
-234.03052 -3.1388769 1314.8085 21 21 21
-230.01566 -3.0373905 1314.7007 21 21 21
-226.02539 -2.7571316 1314.6649 21 21 21
-222.00195 -2.7736309 1314.3209 22 22 22
-218.03825 -2.4789863 1314.3802 23 23 23
-213.99997 -2.4564829 1314.1584 24 24 24
-209.89952 -2.2484803 1314.1021 24 24 24
-206.09129 -2.1416259 1313.9857 24 24 24
-202.04288 -1.8528011 1314.0393 24 24 24
-198.07509 -1.7796504 1313.8215 25 25 25
-194.02913 -1.6116177 1313.7059 25 25 25
-190.03674 -1.6276944 1313.4521 25 25 25
-186.06216 -1.4412656 1313.4109 24 24 24
-181.94339 -1.2537595 1313.3572 24 24 24
-178.0712 -1.3433133 1312.9294 24 24 24
-174.08405 -1.0046719 1312.9772 24 24 24
-169.97891 -0.97484255 1312.704 23 23 23
-165.94437 -0.68819678 1312.8223 23 23 23
-162.09447 -0.73289776 1312.4884 23 23 23
-158.45219 -0.59283626 1312.427 23 23 23
-153.95944 -0.41668415 1312.283 22 22 22
-151.28201 -0.4164685 1312.04 22 22 22
-305.51703 0.1608225 1315.8674 27 27 27
-301.82742 0.3382147 1315.681 27 27 27
-298.00195 0.43386275 1315.6746 25 25 25
-294.05051 0.4567275 1315.3649 24 24 24
-289.9436 0.65365046 1315.2394 25 25 25
-285.94437 0.75215274 1315.1384 25 25 25
-281.76205 0.89272344 1314.9685 24 24 24
-277.98059 1.0018834 1314.7812 24 24 24
-273.97232 1.0799688 1314.5804 25 25 25
-269.98047 1.3601246 1314.6177 25 25 25
-266.00574 1.288494 1314.3165 22 22 22
-261.90634 1.5592833 1314.3318 21 21 21
-258.73071 1.370321 1314.36 19 19 19
-201.1015 0.16783351 1315.905 26 26 26
-198.11613 0.16796885 1315.7458 25 25 25
-193.5932 0.3447023 1315.588 25 25 25
-189.92384 0.48510653 1315.4584 26 26 26
-186.06493 0.43993875 1315.2024 25 25 25
-181.97932 0.7274121 1315.2424 25 25 25
-177.90028 0.7568233 1315.0225 24 24 24
-173.75108 0.98698002 1314.9249 24 24 24
-170.03839 1.0056112 1314.674 24 24 24
-165.96631 1.1014786 1314.5583 24 24 24
-161.95166 1.379352 1314.5875 23 23 23
-157.97011 1.362414 1314.3271 23 23 23
-153.96455 1.5706449 1314.2631 23 23 23
-149.98845 1.6022832 1313.9778 23 23 23
-145.90823 1.8784328 1313.9989 24 24 24
-142.07979 2.1091464 1313.951 21 21 21
-138.75684 2.0016739 1313.6753 19 19 19
-136.097 7.8104 1315.97 95 95 95
-134.32828 7.5439768 1313.4987 27 27 27
-131.584 7.78721 1312.13 23 23 23
-41.509129 7.4920316 1312.7192 24 24 24
-37.990616 7.4919167 1312.7167 28 28 28
-34.960178 7.3941321 1312.688 30 30 30
-136.34071 9.1530523 1315.8787 54 54 54
-133.73732 9.8994188 1314.6353 23 23 23
-130.0547 9.9009256 1314.0863 23 23 23
-125.93044 10.146241 1314.0941 23 23 23
-121.96713 10.265209 1314.0321 22 22 22
-118.04537 10.40852 1314.0452 26 26 26
-114.04333 10.39868 1313.6825 27 27 27
-110.01698 10.677945 1313.6649 27 27 27
-105.89146 10.759487 1313.5121 27 27 27
-102.08684 10.801649 1313.3842 26 26 26
-98.114304 10.98236 1313.2632 26 26 26
-94.052101 11.045263 1313.0592 26 26 26
-89.934418 11.304318 1312.9718 26 26 26
-85.90065 11.363479 1312.7306 25 25 25
-81.991676 11.59415 1312.7251 25 25 25
-78.163765 11.591893 1312.5128 25 25 25
-74.373268 11.752789 1312.3611 25 25 25
-69.934593 11.881414 1312.2471 26 26 26
-66.702827 11.88015 1312.135 26 26 26
-41.275551 9.2623634 1314.6144 22 22 22
-37.932312 9.3524256 1314.6033 28 28 28
-34.9142 9.425312 1314.6428 30 30 30
-116.639 12.508 1315.9399 26 26 26
-113.6864 12.5068 1315.8561 25 25 25
-110.12643 12.503344 1315.5515 25 25 25
-105.8643 12.773293 1315.5015 27 27 27
-101.86721 12.793828 1315.3529 26 26 26
-97.819557 12.968614 1315.2667 26 26 26
-94.110245 13.054541 1315.099 26 26 26
-90.058838 13.080198 1314.7847 25 25 25
-85.878166 13.340714 1314.801 25 25 25
-81.872917 13.402152 1314.4781 25 25 25
-77.948227 13.584436 1314.486 25 25 25
-74.104836 13.6257 1314.2943 25 25 25
-69.944878 13.797559 1314.178 26 26 26
-65.925674 13.951493 1314.1763 26 26 26
-61.895203 14.008115 1314.0284 26 26 26
-58.084793 13.884277 1313.725 27 27 27
-54.242321 14.144023 1313.7776 27 27 27
-51.020924 14.307735 1313.7828 25 25 25
-61.898602 16.0242 1315.97 27 27 27
-57.483582 16.022484 1315.87 27 27 27
-53.946686 16.019499 1315.6567 27 27 27
-50.711983 16.01878 1315.62 28 28 28
-135.924 -13.3865 1319.99 56 56 56
-268.61249 -8.0949554 1316.345 65 65 65
-265.67148 -8.1665735 1316.1674 68 68 68
-262.33966 -8.4854574 1316.2611 70 70 70
-259.966 -8.6814299 1316.3 67 67 67
-317.84933 -4.5797763 1319.875 55 55 55
-313.57654 -4.7097621 1319.7167 58 58 58
-309.79056 -5.0943403 1319.4187 61 61 61
-305.97012 -5.4270306 1319.2089 64 64 64
-301.8877 -5.6135674 1318.9658 62 62 62
-297.98941 -5.7348289 1318.5045 63 63 63
-294.05173 -5.750217 1318.042 63 63 63
-290.06989 -5.7471924 1317.6135 69 69 69
-286.00958 -6.0283518 1317.1625 70 70 70
-282.13547 -6.1007452 1316.8381 66 66 66
-277.7066 -6.7807398 1316.6454 66 66 66
-274.09177 -6.9522872 1316.4746 61 61 61
-270.29688 -7.4310775 1316.2037 63 63 63
-267.65701 -7.5030298 1316.04 67 67 67
-341.77216 -0.77343029 1319.2294 55 55 55
-337.88992 -1.1158326 1319.1531 60 60 60
-333.97855 -1.2769332 1318.8556 62 62 62
-330.05496 -1.6736459 1318.7559 62 62 62
-325.93777 -1.7612406 1318.411 59 59 59
-321.92017 -2.0927396 1318.0999 59 59 59
-317.99353 -2.1945972 1317.7994 56 56 56
-313.99289 -2.2191362 1317.3763 57 57 57
-310.18857 -2.3340898 1316.9673 58 58 58
-306.16257 -3.1637154 1317.0371 63 63 63
-302.12076 -3.4495277 1316.8416 66 66 66
-298.21405 -3.6776755 1316.61 66 66 66
-293.96371 -3.9710655 1316.3085 68 68 68
-253.54515 -1.5365956 1317.2153 17 17 17
-249.98135 -1.6389766 1317.2943 19 19 19
-246.03951 -1.4268883 1317.2635 21 21 21
-241.96552 -1.3083917 1317.1138 21 21 21
-237.99525 -1.3078073 1316.9158 21 21 21
-234.03906 -1.0407813 1316.8885 21 21 21
-230.09915 -1.0431781 1316.6295 21 21 21
-226.14052 -0.71729529 1316.6964 21 21 21
-222.06976 -0.69414872 1316.3939 22 22 22
-218.07117 -0.42201948 1316.37 23 23 23
-214.17586 -0.42165813 1316.1271 24 24 24
-211.491 -0.42143148 1316.025 25 25 25
-341.7742 0.71966505 1318.9768 34 34 34
-337.92819 1.009032 1319.1448 30 30 30
-333.97876 1.0688657 1318.8193 30 30 30
-329.87604 1.284847 1318.7167 29 29 29
-325.98917 1.326232 1318.5275 28 28 28
-322.01068 1.6404649 1318.4722 27 27 27
-318.00247 1.647591 1318.2363 26 26 26
-313.94833 1.7388614 1318.0089 25 25 25
-310.04974 1.9109321 1317.8558 26 26 26
-306.06 2.1331677 1317.8398 26 26 26
-302.11743 2.358042 1317.7668 25 25 25
-298.04404 2.4928958 1317.6725 24 24 24
-293.97137 2.5082111 1317.4036 23 23 23
-290.04816 2.6887534 1317.3341 25 25 25
-285.95227 2.8663943 1317.2885 25 25 25
-282.14618 2.8448381 1317.0092 24 24 24
-277.98267 3.1151218 1316.9623 24 24 24
-273.95142 3.1455748 1316.7554 25 25 25
-270.05399 3.3867216 1316.7893 25 25 25
-265.96695 3.4086037 1316.535 23 23 23
-262.1138 3.5720923 1316.4668 21 21 21
-258.41312 3.273931 1316.4 19 19 19
-253.532 0.60840541 1319.2333 16 16 16
-249.99576 0.48368305 1319.5131 19 19 19
-246.08961 0.43836114 1319.2253 20 20 20
-242.00662 0.72724462 1319.2844 21 21 21
-237.94051 0.7863397 1319.0342 21 21 21
-233.94856 0.93673897 1318.9254 21 21 21
-229.9944 1.0194795 1318.7383 21 21 21
-225.91652 1.13664 1318.6094 21 21 21
-221.94554 1.3655806 1318.6061 22 22 22
-217.93474 1.347476 1318.2891 23 23 23
-214.04541 1.7017924 1318.4308 24 24 24
-209.98863 1.6496575 1318.078 24 24 24
-205.91479 1.8168737 1318.0175 25 25 25
-202.04512 2.0160143 1318.0265 25 25 25
-197.95389 2.2908607 1318.0183 24 24 24
-194.10245 2.3296289 1317.7511 25 25 25
-190.05501 2.4910007 1317.6776 26 26 26
-185.98016 2.5598135 1317.4524 26 26 26
-182.00047 2.8085172 1317.45 25 25 25
-178.05208 2.7734029 1317.1541 24 24 24
-174.17796 2.9654462 1317.035 24 24 24
-169.88133 3.1122777 1316.9749 24 24 24
-166.08948 3.1461425 1316.7024 24 24 24
-162.16615 3.4056423 1316.7528 23 23 23
-158.0015 3.4049351 1316.5244 24 24 24
-154.07349 3.6250062 1316.4062 23 23 23
-149.987 3.6977065 1316.17 22 22 22
-147.317 3.6972933 1316.0533 24 24 24
-137.29401 3.6972301 1316.14 17 17 17
-304.34799 4.3069901 1319.87 26 26 26
-301.9324 4.3065629 1319.7971 25 25 25
-298.21628 4.3903956 1319.6443 24 24 24
-293.827 4.5516582 1319.5009 23 23 23
-289.98151 4.6227632 1319.3077 22 22 22
-285.98093 4.8297429 1319.2811 25 25 25
-282.01324 4.8943028 1319.0629 25 25 25
-277.82864 5.081676 1318.9354 24 24 24
-274.04193 5.1427088 1318.7603 25 25 25
-270.03879 5.220119 1318.6299 25 25 25
-265.99066 5.4642591 1318.6818 24 24 24
-261.99344 5.4638205 1318.406 21 21 21
-258.45859 5.4568672 1318.3439 20 20 20
-196.368 4.3000898 1319.92 27 27 27
-193.97957 4.2996683 1319.8256 25 25 25
-190.08301 4.2986135 1319.5667 26 26 26
-185.97206 4.5440907 1319.5199 25 25 25
-182.04079 4.5923591 1319.3293 25 25 25
-177.7807 4.8175192 1319.2954 24 24 24
-174.09567 4.8544097 1318.9475 24 24 24
-169.98125 5.0324178 1318.8987 24 24 24
-165.96474 5.1789813 1318.7509 24 24 24
-161.87433 5.2765508 1318.6555 24 24 24
-158.01459 5.4546585 1318.576 23 23 23
-153.94699 5.536756 1318.3417 23 23 23
-149.94075 5.7656908 1318.3616 23 23 23
-145.96191 5.7936563 1318.0758 23 23 23
-141.94771 5.9372258 1317.8827 16 16 16
-138.12865 6.1506524 1316.5454 37 37 37
-135.51199 7.2229099 1316.01 30 30 30
-137.8804 8.9906139 1316.658 37 37 37
-132.562 11.9237 1316 25 25 25
-129.91534 11.923932 1316.0699 24 24 24
-126.082 11.9232 1316.0601 25 25 25
-41.349468 11.33484 1316.9628 21 21 21
-37.841759 11.361886 1316.7137 27 27 27
-34.681137 11.530033 1316.9344 30 30 30
-132.99448 14.067131 1318.5304 24 24 24
-129.94479 14.065765 1318.4614 23 23 23
-126.03682 13.97989 1318.1191 23 23 23
-122.07547 13.962681 1317.8241 23 23 23
-118.01376 14.033386 1317.7988 24 24 24
-113.95907 14.274311 1317.8386 24 24 24
-109.99902 14.287271 1317.5509 25 25 25
-106.15588 14.495082 1317.431 26 26 26
-102.01777 14.576814 1317.2908 26 26 26
-97.977448 14.680614 1317.1759 27 27 27
-93.935143 14.897475 1317.0485 27 27 27
-90.112076 14.834287 1316.8484 26 26 26
-86.185905 15.096408 1316.7039 26 26 26
-81.934761 15.152387 1316.5186 26 26 26
-78.004425 15.313832 1316.4211 26 26 26
-73.972649 15.441751 1316.2434 26 26 26
-71.02655 15.440475 1316.1699 25 25 25
-44.367901 13.7085 1319.2433 17 17 17
-41.902523 13.264018 1318.9366 21 21 21
-37.871525 13.40922 1318.7694 26 26 26
-34.540676 13.424747 1318.6117 30 30 30
-121.72279 16.0826 1319.9299 24 24 24
-118.161 16.079729 1319.7587 24 24 24
-113.792 16.150936 1319.6362 24 24 24
-109.87207 16.370159 1319.5629 25 25 25
-106.01118 16.366034 1319.2933 26 26 26
-102.01794 16.597742 1319.2932 26 26 26
-98.027702 16.65674 1319.1155 27 27 27
-93.796188 16.880779 1318.9816 26 26 26
-89.959709 16.981537 1318.8405 26 26 26
-86.043373 17.104572 1318.6501 25 25 25
-82.058243 17.234848 1318.4979 26 26 26
-77.907227 17.118498 1318.088 27 27 27
-73.928787 17.592997 1318.2816 28 28 28
-70.105667 17.4529 1317.9972 27 27 27
-66.036011 17.656712 1317.9355 28 28 28
-61.988129 17.848967 1317.8668 27 27 27
-57.909119 18.058413 1317.9255 27 27 27
-53.928371 18.166609 1317.8506 26 26 26
-50.544914 18.111656 1317.6901 26 26 26
-56.971531 20.1933 1319.89 26 26 26
-53.627453 20.192133 1319.8451 26 26 26
-49.988449 20.190826 1319.785 26 26 26
-136.08099 -16.3528 1321.52 35 35 35
-133.90096 -17.286226 1322.7299 70 70 70
-131.37657 -17.125586 1322.7029 54 54 54
-136.0195 -15.460649 1320.92 40 40 40
-133.98621 -14.553351 1320.6464 73 73 73
-131.649 -14.795401 1320.8762 57 57 57
-353.20825 -4.0081153 1323.8975 61 61 61
-349.64392 -4.4034085 1323.7467 63 63 63
-346.03839 -4.5698223 1323.394 61 61 61
-342.23392 -4.6711888 1322.9211 62 62 62
-337.94321 -4.9508414 1322.5347 60 60 60
-334.02411 -5.218503 1322.4926 61 61 61
-329.97577 -5.1539927 1321.8785 64 64 64
-326.0545 -5.1809883 1321.4784 62 62 62
-321.94772 -5.2319484 1321.0059 60 60 60
-318.02106 -5.6953344 1320.8969 60 60 60
-314.19977 -5.8001075 1320.6528 66 66 66
-310.18762 -6.2253079 1320.3276 70 70 70
-305.41733 -6.7495995 1320.17 68 68 68
-301.992 -6.94526 1320.05 75 75 75
-353.43118 -2.9800146 1323.8063 48 48 48
-349.91644 -2.6466999 1323.6931 36 36 36
-346.00021 -2.4749222 1323.1498 33 33 33
-341.81042 -2.6866686 1321.2871 56 56 56
-338.05515 -3.1415594 1321.0898 60 60 60
-334.04126 -3.4012351 1320.9293 60 60 60
-329.91162 -3.7190039 1320.7069 58 58 58
-326.31369 -3.7935579 1320.5011 54 54 54
-323.05234 -3.989713 1320.27 46 46 46
-341.45566 2.9074037 1320.8053 24 24 24
-338.20117 2.9849701 1320.9453 25 25 25
-334.07681 3.1554883 1320.8364 25 25 25
-330.10449 3.3232119 1320.7521 26 26 26
-325.97089 3.3983641 1320.4884 27 27 27
-321.89374 3.7172887 1320.4529 25 25 25
-317.95868 3.7167416 1320.33 25 25 25
-314.58398 3.715728 1320.032 24 24 24
-253.23044 2.7027283 1321.5494 16 16 16
-250.01279 2.5157995 1321.572 19 19 19
-246.02525 2.5331824 1321.3427 21 21 21
-242.06403 2.8180816 1321.4413 21 21 21
-238.08684 2.7827177 1321.1038 21 21 21
-234.09209 2.9758098 1321.0604 21 21 21
-229.94003 3.1527398 1320.952 22 22 22
-226.06726 3.1224866 1320.7035 22 22 22
-222.0625 3.4177299 1320.6951 22 22 22
-218.12117 3.4664679 1320.5634 23 23 23
-213.99066 3.7121699 1320.4716 24 24 24
-210.07643 3.7111657 1320.1742 25 25 25
-207.39 3.710865 1320.105 25 25 25
-341.44254 5.136682 1322.7812 23 23 23
-338.06253 4.8840475 1322.8881 25 25 25
-333.85843 5.048172 1322.8101 25 25 25
-329.95911 5.2093296 1322.661 25 25 25
-325.97571 5.2631721 1322.4734 26 26 26
-322.01123 5.522687 1322.4315 25 25 25
-317.97119 5.5906315 1322.2195 25 25 25
-314.04578 5.7919731 1322.1705 25 25 25
-309.93173 5.9710779 1322.0347 25 25 25
-305.97238 6.080615 1321.8885 26 26 26
-301.98514 6.3826823 1321.9797 26 26 26
-297.97244 6.4353747 1321.7506 26 26 26
-294.06815 6.5819526 1321.6146 26 26 26
-289.96286 6.7002945 1321.5059 26 26 26
-286.04965 6.8787379 1321.4393 25 25 25
-282.02682 7.0215387 1321.2804 25 25 25
-278.12955 7.0729465 1321.0834 24 24 24
-273.95303 7.239316 1320.9769 24 24 24
-269.92203 7.2972145 1320.8646 24 24 24
-266.09177 7.4941173 1320.7931 24 24 24
-262.01263 7.5607023 1320.625 21 21 21
-258.28519 7.5875411 1320.7263 19 19 19
-253.28914 4.611351 1323.4161 16 16 16
-250.24188 4.3891625 1323.5126 20 20 20
-245.97598 4.634069 1323.5483 20 20 20
-241.9234 4.7088418 1323.282 21 21 21
-238.02606 4.9062099 1323.3181 21 21 21
-233.98363 4.9360099 1323.0348 21 21 21
-229.95705 4.9844952 1322.8119 21 21 21
-225.99828 5.1995292 1322.8153 22 22 22
-221.85472 5.297049 1322.6116 23 23 23
-218.03049 5.4383278 1322.5326 23 23 23
-214.04349 5.5273061 1322.3138 25 25 25
-209.97871 5.7806954 1322.3448 24 24 24
-206.0134 5.7570891 1322.0496 25 25 25
-201.98013 5.9305925 1322.0165 25 25 25
-198.03561 6.1207533 1321.9725 24 24 24
-193.99501 6.3761883 1321.9551 25 25 25
-189.98845 6.314878 1321.5886 25 25 25
-186.02679 6.6521578 1321.6429 26 26 26
-181.96906 6.6853371 1321.4189 25 25 25
-178.14825 6.7678318 1321.2426 24 24 24
-173.98441 6.9603815 1321.1783 24 24 24
-170.04732 7.1260986 1321.064 23 23 23
-166.05 7.2220449 1320.9141 23 23 23
-162.14835 7.2809572 1320.697 23 23 23
-157.91048 7.5459304 1320.7013 23 23 23
-154.26891 7.6032104 1320.4771 23 23 23
-150.40463 7.7650065 1320.4839 23 23 23
-146.00514 7.8365197 1320.1971 23 23 23
-143.3345 7.8358798 1320.14 17 17 17
-301.6785 8.4777451 1323.9399 26 26 26
-298.04742 8.4762459 1323.8357 27 27 27
-293.60687 8.6722078 1323.679 27 27 27
-290.01437 8.7460079 1323.4475 26 26 26
-286.06732 8.790061 1323.3438 26 26 26
-281.83224 8.9571218 1323.1647 25 25 25
-277.99213 9.03092 1323.1105 24 24 24
-273.88486 9.1998682 1322.9656 24 24 24
-270.01001 9.3423071 1322.8201 26 26 26
-266.00201 9.3509912 1322.629 24 24 24
-261.94006 9.5028515 1322.5442 20 20 20
-258.22064 9.5024405 1322.6196 19 19 19
-189.50075 8.4551048 1323.7826 25 25 25
-186.19286 8.4530573 1323.5442 25 25 25
-181.89162 8.7255793 1323.553 25 25 25
-177.97844 8.7692919 1323.3732 24 24 24
-174.03069 8.8928633 1323.2219 24 24 24
-170.08575 9.0397339 1323.163 24 24 24
-165.75526 9.1856985 1322.9833 24 24 24
-161.94519 9.3676033 1322.8622 24 24 24
-157.98167 9.4015112 1322.6648 23 23 23
-153.98294 9.6246586 1322.5963 22 22 22
-149.86453 9.7271948 1322.4446 22 22 22
-145.9893 9.8548088 1322.3137 23 23 23
-141.955 10.022955 1322.2007 19 19 19
-138.5842 10.905815 1323.0513 26 26 26
-132.97301 15.4975 1320.0699 25 25 25
-42.094097 14.972007 1320.7812 21 21 21
-37.928284 15.196494 1320.7413 25 25 25
-34.384323 15.194481 1320.585 29 29 29
-132.93588 17.760296 1322.1779 24 24 24
-130.06749 17.518026 1321.9856 25 25 25
-125.9995 17.805691 1322.0298 25 25 25
-122.01086 18.162258 1322.1284 24 24 24
-117.95663 18.202133 1321.9368 23 23 23
-114.10316 18.137943 1321.7502 24 24 24
-110.05376 18.462692 1321.7406 25 25 25
-105.88806 18.4575 1321.4354 26 26 26
-102.01739 18.727934 1321.3862 26 26 26
-98.117981 18.714449 1321.2089 26 26 26
-94.146179 18.938038 1321.1727 26 26 26
-89.890816 19.036314 1320.9417 25 25 25
-86.025215 19.230745 1320.8585 26 26 26
-82.391701 19.292967 1320.6866 27 27 27
-78.05072 19.402746 1320.5127 29 29 29
-73.91246 19.614727 1320.413 28 28 28
-70.060333 19.609833 1320.1267 27 27 27
-67.106628 19.6084 1320.0625 27 27 27
-42.06089 17.024742 1322.8827 22 22 22
-37.872952 17.13341 1322.7958 26 26 26
-34.662224 17.226963 1322.6105 28 28 28
-112.019 20.267 1323.98 25 25 25
-109.92899 20.26355 1323.7933 25 25 25
-105.7027 20.436089 1323.5549 27 27 27
-101.90043 20.550985 1323.4059 26 26 26
-97.749496 20.770376 1323.3293 26 26 26
-94.099258 20.811781 1323.198 25 25 25
-90.027611 20.836426 1322.9471 26 26 26
-85.809944 21.0609 1322.8331 26 26 26
-81.996544 21.244244 1322.8674 27 27 27
-77.987823 21.23934 1322.4446 28 28 28
-74.024071 21.415054 1322.4014 27 27 27
-69.814919 21.551508 1322.2369 26 26 26
-65.885963 21.730844 1322.2815 27 27 27
-62.052212 21.694149 1321.9775 26 26 26
-58.057938 21.908255 1321.9142 26 26 26
-53.97509 22.20879 1322.1624 26 26 26
-50.181454 22.247513 1321.9814 25 25 25
-248.418 63.481701 1321.05 24 24 24
-248.46201 64.0849 1321.28 24 24 24
-247.41576 65.137764 1321.6613 23 23 23
-133.86006 -21.191858 1326.7646 75 75 75
-131.30043 -21.160564 1327.0511 55 55 55
-134.06061 -19.353184 1324.9495 67 67 67
-131.42284 -19.357183 1325.2968 58 58 58
-352.8175 -4.7527552 1324.1301 63 63 63
-350.82388 -5.0286932 1324.1814 63 63 63
-353.92197 -1.1954802 1324.9253 26 26 26
-350.23303 -0.96252519 1324.8141 23 23 23
-346.92014 -0.6919356 1324.7727 24 24 24
-356.72635 0.85419053 1327.2417 28 28 28
-353.93246 0.84007579 1326.8838 24 24 24
-350.00925 1.0175588 1326.8452 22 22 22
-347.38342 1.0204417 1326.9099 23 23 23
-340.80042 7.0649581 1324.973 22 22 22
-338.03323 6.9722223 1325.0446 24 24 24
-334.08121 7.1281281 1324.9686 25 25 25
-330.00558 7.268733 1324.8184 25 25 25
-326.0314 7.3610525 1324.6683 25 25 25
-322.00119 7.5945873 1324.6008 26 26 26
-318.18909 7.6422939 1324.4124 26 26 26
-314.09433 7.8883834 1324.2916 27 27 27
-311.02225 7.8862 1324.0275 26 26 26
-307.71301 7.88552 1324.03 28 28 28
-252.9109 6.5916424 1325.3966 14 14 14
-249.9538 6.4689507 1325.6135 18 18 18
-245.98009 6.6783628 1325.5831 20 20 20
-242.03716 6.7715311 1325.4382 21 21 21
-237.95546 7.03684 1325.4835 21 21 21
-234.02692 6.9431562 1325.1263 21 21 21
-230.11195 7.0945916 1325.0646 21 21 21
-225.96376 7.3145285 1325.0043 22 22 22
-222.14232 7.2811799 1324.7195 23 23 23
-217.95995 7.5767365 1324.7034 24 24 24
-214.04425 7.5748925 1324.4843 24 24 24
-210.38 7.7961073 1324.4213 26 26 26
-205.94984 7.8682756 1324.2214 25 25 25
-202.54132 7.8666 1324.0267 24 24 24
-199.362 7.8660698 1324.02 24 24 24
-340.97964 8.9526634 1326.8425 21 21 21
-337.96979 9.0738392 1327.2561 24 24 24
-333.9718 9.132761 1327.0731 25 25 25
-329.92944 9.2288456 1326.91 25 25 25
-326.00015 9.441431 1326.8143 24 24 24
-321.94589 9.4036341 1326.5345 25 25 25
-317.99231 9.7077456 1326.4954 26 26 26
-313.94592 9.7719307 1326.316 26 26 26
-310.00439 9.9605236 1326.3062 27 27 27
-305.99783 10.002608 1325.9525 26 26 26
-302.04288 10.033233 1325.7532 27 27 27
-297.9845 10.326993 1325.7391 27 27 27
-294.07465 10.369177 1325.5164 27 27 27
-290.01349 10.56623 1325.5526 26 26 26
-286.05368 10.56319 1325.3104 26 26 26
-282.19101 10.676905 1325.1425 25 25 25
-277.98688 10.885595 1325.0839 23 23 23
-274.19498 10.887123 1324.77 24 24 24
-270.02692 11.147593 1324.7479 26 26 26
-265.91818 11.167146 1324.5046 23 23 23
-262.34894 11.20195 1324.429 21 21 21
-257.82892 11.222945 1324.5154 19 19 19
-252.98067 8.6885872 1327.5499 11 11 11
-250.20674 8.4906759 1327.6873 14 14 14
-245.97815 8.4888515 1327.53 19 19 19
-241.77776 8.7851648 1327.5109 20 20 20
-238.00577 8.7601795 1327.3015 22 22 22
-233.78406 9.0164614 1327.2516 22 22 22
-229.92023 9.1087618 1327.1427 23 23 23
-225.8838 9.1562052 1326.9198 23 23 23
-221.97569 9.4042292 1326.894 23 23 23
-217.95549 9.4967546 1326.7527 24 24 24
-213.99176 9.5923014 1326.5684 25 25 25
-209.97804 9.7160301 1326.3784 25 25 25
-205.89961 9.7922831 1326.2446 25 25 25
-201.97519 9.8960352 1326.1086 24 24 24
-197.95839 10.012887 1325.9886 24 24 24
-193.99333 9.9274521 1325.6387 24 24 24
-190.07619 10.112758 1325.4918 25 25 25
-185.96764 10.296772 1325.4089 25 25 25
-182.12985 10.446137 1325.2841 26 26 26
-178.0795 10.535304 1325.1455 26 26 26
-173.96388 10.681123 1324.9742 25 25 25
-170.009 10.827534 1324.8806 24 24 24
-166.31606 10.923893 1324.6881 23 23 23
-161.94308 11.119441 1324.59 24 24 24
-158.2941 11.17638 1324.4031 24 24 24
-154.18929 11.411872 1324.3685 23 23 23
-150.30067 11.4091 1324.13 23 23 23
-146.427 11.4074 1324.01 25 25 25
-142.582 11.999149 1324.14 20 20 20
-136.93633 11.997601 1324.0767 28 28 28
-135.77699 11.9998 1324.35 22 22 22
-305.452 12.078825 1327.925 27 27 27
-301.94043 12.075828 1327.7314 27 27 27
-297.95767 12.07185 1327.4449 27 27 27
-294.10785 12.319275 1327.5167 27 27 27
-289.96063 12.389456 1327.4255 26 26 26
-285.83841 12.55547 1327.1799 25 25 25
-282.01291 12.687832 1327.0735 24 24 24
-278.08841 12.83707 1326.9912 23 23 23
-273.98621 12.917222 1326.8138 22 22 22
-269.95334 12.993002 1326.653 23 23 23
-265.87469 13.146012 1326.5171 21 21 21
-261.94211 13.23836 1326.3098 20 20 20
-258.00986 13.489728 1326.5476 20 20 20
-193.97701 12.044657 1327.9314 25 25 25
-189.755 12.12583 1327.6428 24 24 24
-185.96156 12.286643 1327.5533 25 25 25
-181.95351 12.333121 1327.3342 25 25 25
-177.7652 12.50928 1327.2419 25 25 25
-174.0769 12.595881 1327.0801 26 26 26
-169.84691 12.726457 1326.9445 25 25 25
-165.93674 12.964105 1326.8939 25 25 25
-161.96193 12.978829 1326.6571 24 24 24
-158.02661 13.210792 1326.6431 24 24 24
-153.86174 13.361011 1326.5168 23 23 23
-150.00917 13.479597 1326.3312 22 22 22
-146.01682 13.462667 1326.0671 22 22 22
-142.00346 14.042855 1326.3755 22 22 22
-138.08572 14.048807 1326.0238 22 22 22
-135.88734 13.193466 1325.42 23 23 23
-132.5025 19.685501 1324.225 25 25 25
-129.83429 19.6849 1324.2443 26 26 26
-127.46 19.684 1324.23 27 27 27
-41.895714 19.086617 1324.9211 22 22 22
-38.241867 19.182819 1324.7855 25 25 25
-34.791313 19.380352 1324.845 26 26 26
-132.87392 21.441545 1325.8798 25 25 25
-129.95317 21.588482 1326.2749 26 26 26
-125.97101 21.847919 1326.3562 26 26 26
-122.04566 21.759787 1326.0553 24 24 24
-118.02768 21.791744 1325.8337 24 24 24
-114.00578 22.111845 1325.9705 25 25 25
-109.96149 22.439911 1326.1039 26 26 26
-106.18747 22.414335 1325.7792 27 27 27
-102.07417 22.657482 1325.6554 26 26 26
-98.030281 22.807444 1325.5692 25 25 25
-93.89933 22.994442 1325.5455 26 26 26
-90.043457 22.896227 1325.1835 26 26 26
-86.109177 23.133682 1325.1926 26 26 26
-81.869102 23.231419 1324.9592 26 26 26
-78.192429 23.347761 1324.9021 26 26 26
-74.157776 23.522036 1324.7814 26 26 26
-70.210312 23.596092 1324.4601 26 26 26
-66.071404 23.735773 1324.4301 26 26 26
-62.291298 23.806461 1324.292 24 24 24
-58.614037 23.802679 1324.116 26 26 26
-52.811199 23.7999 1324.01 25 25 25
-48.6731 23.8008 1324.09 25 25 25
-41.940739 21.045643 1326.8295 22 22 22
-37.970173 20.990023 1326.6765 25 25 25
-34.385098 21.238695 1326.8096 26 26 26
-108.78268 24.474867 1327.87 26 26 26
-105.80143 24.471758 1327.7513 26 26 26
-101.63622 24.666656 1327.6768 25 25 25
-97.811066 24.71158 1327.4976 26 26 26
-93.888077 24.75642 1327.3121 26 26 26
-89.844101 24.931295 1327.2167 25 25 25
-86.156891 25.046793 1327.11 26 26 26
-82.024399 25.309057 1327.11 26 26 26
-77.901268 25.369595 1326.8854 26 26 26
-73.989334 25.549738 1326.7113 25 25 25
-70.105293 25.624489 1326.5369 25 25 25
-65.896385 25.669584 1326.3611 26 26 26
-61.932987 25.983898 1326.3632 25 25 25
-58.087639 25.839848 1326.0167 26 26 26
-54.071941 25.905184 1325.9022 26 26 26
-49.921272 25.902725 1325.8113 25 25 25
-53.26535 28.017824 1327.9401 26 26 26
-49.801044 28.015533 1327.8617 26 26 26
-244.86665 70.077507 1326.54 22 22 22
-133.58981 -24.510466 1330.4556 60 60 60
-131.08484 -24.490217 1330.8883 53 53 53
-133.94574 -22.999519 1328.8046 80 80 80
-131.30472 -22.884003 1328.8085 57 57 57
-356.36224 2.8468649 1328.9 26 26 26
-354.15234 2.9068842 1329.0303 24 24 24
-350.00113 3.0600712 1328.931 23 23 23
-346.89346 2.9828379 1329.0626 23 23 23
-356.21799 5.5467801 1331.76 28 28 28
-354.01825 4.8791814 1331.111 24 24 24
-350.01401 4.9745455 1330.9391 23 23 23
-346.95068 4.9443827 1330.951 23 23 23
-340.65939 10.831573 1328.8363 21 21 21
-338.01141 10.93709 1329.0822 23 23 23
-334.03406 10.872516 1328.8389 26 26 26
-330.07925 11.041306 1328.6317 25 25 25
-325.98807 11.19725 1328.5641 25 25 25
-322.14606 11.217123 1328.3501 25 25 25
-318.06168 11.490284 1328.2783 25 25 25
-314.5968 11.488321 1328.186 26 26 26
-252.89529 10.414647 1329.2006 17 17 17
-250.08023 10.343914 1329.625 15 15 15
-246.00104 10.28607 1329.2716 21 21 21
-242.06187 10.484636 1329.4338 21 21 21
-237.9552 10.614118 1329.2194 22 22 22
-234.14421 10.757401 1329.079 22 22 22
-230.04581 10.87428 1328.9586 23 23 23
-226.14571 10.977194 1328.8311 24 24 24
-222.07086 11.144331 1328.6869 24 24 24
-218.21681 11.246373 1328.5781 24 24 24
-214.31358 11.376172 1328.5272 25 25 25
-210.17972 11.458328 1328.3342 24 24 24
-206.85825 11.455775 1328.135 25 25 25
-340.64816 13.13378 1330.7429 21 21 21
-337.98233 12.991833 1331.1134 23 23 23
-333.99826 12.967112 1330.9004 26 26 26
-329.99469 13.055903 1330.7378 25 25 25
-325.8558 13.119641 1330.5325 26 26 26
-321.97382 13.321568 1330.4749 25 25 25
-317.86832 13.477296 1330.3038 25 25 25
-313.97198 13.595093 1330.1416 25 25 25
-309.9462 13.642599 1329.9523 26 26 26
-305.99588 13.967783 1330.0446 26 26 26
-301.99423 14.177134 1329.9404 27 27 27
-298.00977 14.188272 1329.709 27 27 27
-293.9624 14.374922 1329.7303 27 27 27
-289.96033 14.472203 1329.4373 26 26 26
-286.07529 14.634433 1329.3994 25 25 25
-281.94455 14.811527 1329.353 24 24 24
-277.90793 14.868791 1329.0447 22 22 22
-273.98184 15.085159 1328.9409 21 21 21
-270.03363 15.019184 1328.6589 22 22 22
-266.21857 15.235819 1328.7413 21 21 21
-261.94025 15.367253 1328.6361 21 21 21
-257.84363 15.488313 1328.37 22 22 22
-253.95908 14.005462 1329.3206 25 25 25
-250.53183 12.890955 1330.9343 22 22 22
-246.08057 12.387901 1331.322 18 18 18
-242.00984 12.409484 1331.3192 19 19 19
-238.06982 12.651822 1331.2888 22 22 22
-234.02251 12.680257 1331.1119 22 22 22
-229.80006 12.911151 1331.0052 23 23 23
-226.01649 12.926468 1330.7515 24 24 24
-221.93469 13.054956 1330.629 24 24 24
-217.9101 13.247066 1330.5454 25 25 25
-213.93571 13.262565 1330.3499 25 25 25
-209.96954 13.582491 1330.4047 24 24 24
-206.02652 13.532918 1330.1377 25 25 25
-201.93915 13.661544 1330.0131 24 24 24
-197.99783 13.927961 1330.0728 25 25 25
-194.02536 14.122026 1329.9382 24 24 24
-190.05365 14.141429 1329.7288 24 24 24
-186.00394 14.436912 1329.6915 25 25 25
-182.06438 14.37648 1329.3671 25 25 25
-178.1497 14.541328 1329.2715 26 26 26
-173.90556 14.757114 1329.1322 25 25 25
-170.12579 14.759382 1328.9178 25 25 25
-166.05292 15.016333 1328.9193 24 24 24
-162.05611 15.112361 1328.7617 25 25 25
-157.97383 15.308334 1328.7001 24 24 24
-154.32283 15.354383 1328.4901 23 23 23
-149.89658 15.599771 1328.4357 23 23 23
-146.00533 15.596767 1328.2683 22 22 22
-142.7 15.5928 1328 23 23 23
-297.68539 16.2936 1331.8799 26 26 26
-294.10315 16.290934 1331.8082 26 26 26
-290.09943 16.2847 1331.4543 25 25 25
-286.00748 16.603945 1331.4324 25 25 25
-282.06686 16.553663 1331.2391 24 24 24
-277.96225 16.871811 1331.1354 22 22 22
-273.91782 16.925156 1331.0146 21 21 21
-269.8804 17.079439 1330.8773 20 20 20
-265.91241 17.171869 1330.7946 21 21 21
-261.97934 17.16456 1330.4401 20 20 20
-257.76218 17.367292 1330.219 22 22 22
-255.28865 16.981609 1330.179 27 27 27
-192.463 16.24885 1331.9099 25 25 25
-190.05983 16.247351 1331.8634 26 26 26
-186.13257 16.242987 1331.6143 24 24 24
-181.79321 16.515308 1331.5315 25 25 25
-178.00417 16.533417 1331.2484 25 25 25
-173.95621 16.766771 1331.2263 26 26 26
-169.90228 16.825521 1331.0233 26 26 26
-165.78714 17.039263 1330.9192 24 24 24
-162.03337 17.083931 1330.7469 24 24 24
-157.86403 17.247471 1330.6302 24 24 24
-154.01414 17.409279 1330.5419 24 24 24
-150.05359 17.369808 1330.2908 23 23 23
-145.91342 17.622528 1330.2844 23 23 23
-141.97729 17.719946 1330.0857 22 22 22
-138.0376 17.63287 1329.8145 22 22 22
-135.63184 18.099382 1330.6718 22 22 22
-132.63251 23.753225 1328.4875 24 24 24
-130.35255 23.629784 1328.4181 24 24 24
-126.08343 23.898743 1328.4714 26 26 26
-121.89386 23.892544 1328.2072 24 24 24
-118.3138 23.889101 1328.0881 25 25 25
-41.376469 23.060884 1329.142 23 23 23
-38.281788 23.068159 1329.0573 25 25 25
-34.388348 23.207644 1328.8622 25 25 25
-132.47299 25.582745 1330.2034 24 24 24
-129.96472 25.77421 1330.5331 25 25 25
-126.08278 25.657051 1330.2246 25 25 25
-121.98431 25.89332 1330.1859 24 24 24
-117.9403 26.04023 1330.0811 25 25 25
-114.00323 25.997534 1329.8214 26 26 26
-110.17145 26.072035 1329.7135 25 25 25
-105.95906 26.289381 1329.7212 26 26 26
-102.02994 26.469667 1329.5961 26 26 26
-98.167213 26.425663 1329.2509 26 26 26
-94.021996 26.571592 1329.1981 26 26 26
-89.999916 26.716131 1329.0713 25 25 25
-85.976891 26.859869 1328.9089 26 26 26
-82.071747 27.095053 1328.8632 26 26 26
-77.93853 27.148579 1328.6365 25 25 25
-74.27903 27.355543 1328.4501 25 25 25
-70.203384 27.437914 1328.3871 26 26 26
-66.334686 27.43325 1328.2017 27 27 27
-41.561714 25.077221 1331.2699 22 22 22
-38.041859 25.084068 1331.21 25 25 25
-34.066444 25.11459 1331.192 27 27 27
-31.7008 25.718399 1331.73 34 34 34
-113.29099 28.119066 1331.9434 26 26 26
-109.8196 28.11438 1331.782 25 25 25
-106.11556 28.110842 1331.6771 26 26 26
-101.71719 28.322718 1331.5481 26 26 26
-98.04232 28.3971 1331.295 26 26 26
-94.041031 28.452026 1331.1447 26 26 26
-89.957031 28.65707 1331.0664 25 25 25
-85.781769 28.817034 1330.9038 26 26 26
-82.019531 28.941011 1330.8405 26 26 26
-77.94165 29.115084 1330.6464 25 25 25
-73.887238 29.265238 1330.552 26 26 26
-70.00782 29.258827 1330.3033 27 27 27
-66.097374 29.517874 1330.2681 28 28 28
-61.955601 29.596992 1330.0634 27 27 27
-57.887901 29.909723 1330.146 26 26 26
-54.175106 29.856989 1329.9509 27 27 27
-50.250412 29.831968 1329.5752 27 27 27
-47.6665 29.225338 1328.996 24 24 24
-133.57806 -26.116539 1333.9387 54 54 54
-131.16501 -25.965334 1333.7166 55 55 55
-260.40375 -12.993176 1335.3301 60 60 60
-258.48547 -12.912247 1335.3014 58 58 58
-260.60599 -10.88728 1333.795 58 58 58
-258.33093 -10.924146 1333.6497 55 55 55
-356.26065 7.152607 1333.4366 30 30 30
-354.02887 6.950582 1333.0992 25 25 25
-350.00827 7.0954609 1333.0422 23 23 23
-346.80026 7.124702 1333.2324 23 23 23
-354.16965 9.0620766 1335.2422 26 26 26
-349.80795 9.0852451 1335.132 24 24 24
-346.88025 9.1598902 1335.1942 23 23 23
-340.5238 15.231151 1332.9434 23 23 23
-338.02054 15.049141 1333.3395 23 23 23
-334.0011 15.100362 1333.1326 25 25 25
-330.00668 15.158593 1333.0215 26 26 26
-326.2258 15.19307 1332.7959 25 25 25
-321.99323 15.441776 1332.7123 26 26 26
-318.38065 15.514889 1332.5579 25 25 25
-313.88828 15.709542 1332.3486 24 24 24
-310.20282 15.705119 1332.124 25 25 25
-306.55136 15.702332 1332.04 27 27 27
-249.05511 14.568712 1333.4164 13 13 13
-246.00905 14.553651 1333.5973 16 16 16
-242.00468 14.477223 1333.3569 20 20 20
-237.9624 14.758904 1333.3611 22 22 22
-234.00587 14.824699 1333.2037 22 22 22
-230.22676 14.90206 1333.0187 23 23 23
-226.02927 15.111791 1333.0135 23 23 23
-222.1824 15.077116 1332.7104 26 26 26
-218.19987 15.31426 1332.7213 25 25 25
-214.09132 15.419524 1332.505 24 24 24
-210.14041 15.580229 1332.4143 26 26 26
-206.00827 15.662499 1332.2986 26 26 26
-202.97601 15.658867 1332.08 26 26 26
-340.30099 16.956732 1335.2433 23 23 23
-338.21597 16.697737 1335.1935 23 23 23
-333.87027 16.880636 1335.0964 25 25 25
-329.96356 16.945929 1334.847 26 26 26
-325.87625 17.192919 1334.8005 25 25 25
-322.00739 17.238264 1334.6047 26 26 26
-317.95514 17.341959 1334.5221 25 25 25
-314.02737 17.550308 1334.4951 25 25 25
-309.89261 17.613514 1334.1603 25 25 25
-305.97971 17.814894 1334.1426 25 25 25
-301.90024 18.021061 1334.0496 25 25 25
-298.02319 18.311777 1334.1328 25 25 25
-293.97382 18.411741 1333.9567 25 25 25
-289.99475 18.406494 1333.7465 24 24 24
-286.00311 18.721407 1333.7625 24 24 24
-282.01044 18.677654 1333.4291 23 23 23
-278.0802 18.983044 1333.5173 22 22 22
-274.10907 18.976377 1333.2678 21 21 21
-270.0455 19.230867 1333.3031 20 20 20
-266.0993 19.216293 1333.04 20 20 20
-262.48544 19.389301 1333.0538 21 21 21
-257.72693 19.597284 1333.1346 20 20 20
-255.46201 19.2749 1333.17 15 15 15
-248.646 16.313334 1335.4 16 16 16
-245.93701 16.3125 1335.4316 19 19 19
-241.9184 16.529009 1335.4918 21 21 21
-237.91237 16.629429 1335.2999 21 21 21
-233.87285 16.645565 1335.1478 22 22 22
-229.99576 16.929325 1335.094 23 23 23
-226.05525 16.862837 1334.8158 24 24 24
-221.88205 17.083315 1334.7781 26 26 26
-217.93851 17.233889 1334.6821 26 26 26
-213.92725 17.34379 1334.5333 25 25 25
-210.05144 17.534315 1334.4199 25 25 25
-205.99561 17.510143 1334.1567 26 26 26
-202.00291 17.712353 1334.1609 26 26 26
-198.01126 17.837725 1334.0438 27 27 27
-194.0106 18.050968 1333.9774 27 27 27
-189.97719 18.302086 1334.01 26 26 26
-185.98956 18.427265 1333.8848 25 25 25
-182.06079 18.583059 1333.7645 25 25 25
-177.9431 18.611683 1333.4229 25 25 25
-174.02644 18.934675 1333.6088 26 26 26
-170.05476 18.893913 1333.2941 25 25 25
-166.13538 19.085287 1333.1638 25 25 25
-161.97763 19.262993 1333.0994 25 25 25
-158.237 19.259966 1332.8617 24 24 24
-153.99529 19.524395 1332.9543 25 25 25
-150.06575 19.517458 1332.575 23 23 23
-146.4111 19.634037 1332.4919 22 22 22
-141.98244 19.810072 1332.4215 23 23 23
-137.7733 19.80467 1332.153 22 22 22
-292.28799 20.5338 1335.9301 24 24 24
-290.11984 20.529034 1335.71 23 23 23
-285.95566 20.657679 1335.589 23 23 23
-281.91342 20.82099 1335.557 22 22 22
-277.92789 20.814608 1335.3068 22 22 22
-273.83023 21.047781 1335.2693 20 20 20
-269.91251 21.137024 1335.0902 19 19 19
-265.95276 21.182045 1334.9214 20 20 20
-261.83282 21.369902 1334.7814 21 21 21
-258.02423 21.344669 1334.6666 22 22 22
-255.50575 21.393911 1334.9688 17 17 17
-185.13567 20.475433 1335.9268 25 25 25
-181.91385 20.471884 1335.7858 26 26 26
-177.96417 20.464733 1335.4266 26 26 26
-173.70819 20.642519 1335.455 25 25 25
-169.99684 20.781952 1335.3677 25 25 25
-165.9008 20.851795 1335.0435 25 25 25
-162.02408 21.049006 1335.0332 25 25 25
-157.99844 21.076042 1334.8564 24 24 24
-154.03308 21.255928 1334.728 24 24 24
-149.99118 21.335308 1334.5636 23 23 23
-145.87973 21.611891 1334.5514 23 23 23
-142.071 21.571667 1334.2688 22 22 22
-137.90202 21.808084 1334.2827 22 22 22
-135.36871 21.68424 1334.339 22 22 22
-132.40601 27.5373 1332.1899 23 23 23
-130.04272 27.541416 1332.4357 24 24 24
-125.84528 27.535542 1332.2385 24 24 24
-123.14301 27.530651 1332.0549 26 26 26
-41.008976 26.783724 1332.9449 23 23 23
-37.891441 26.894907 1332.8429 25 25 25
-34.107323 26.928106 1332.7778 26 26 26
-31.720865 26.923632 1332.5701 30 30 30
-132.15741 29.85004 1334.488 25 25 25
-130.00282 29.36684 1334.2467 24 24 24
-125.99925 29.504967 1334.1891 25 25 25
-121.93346 29.718765 1334.1506 24 24 24
-117.9919 29.644449 1333.9049 25 25 25
-114.06238 30.029322 1333.9768 25 25 25
-109.95221 30.231441 1333.9661 25 25 25
-105.98848 30.240845 1333.8218 26 26 26
-102.11541 30.357122 1333.7018 26 26 26
-97.909775 30.528614 1333.5354 26 26 26
-94.070625 30.564192 1333.3583 26 26 26
-90.158676 30.766472 1333.2952 25 25 25
-86.044312 30.881029 1333.1223 25 25 25
-81.964539 31.138588 1333.0707 26 26 26
-78.292366 31.17111 1332.8583 26 26 26
-74.008728 31.394178 1332.7286 28 28 28
-69.820282 31.385014 1332.3893 29 29 29
-65.945061 31.679319 1332.3083 29 29 29
-62.164017 31.673485 1332.1 28 28 28
-41.110146 28.819029 1335.2 23 23 23
-37.874615 28.859066 1334.9828 25 25 25
-34.161758 29.055431 1334.8967 26 26 26
-31.631575 29.356901 1335.0725 29 29 29
-268.68524 34.249348 1334.3875 23 23 23
-104.064 32.374001 1335.92 27 27 27
-101.957 32.368649 1335.7367 27 27 27
-97.835968 32.437637 1335.5737 26 26 26
-93.864693 32.655251 1335.3922 25 25 25
-89.849777 32.716408 1335.1385 25 25 25
-86.091629 32.947567 1335.2676 25 25 25
-81.838188 32.99263 1334.9562 26 26 26
-77.954155 33.152317 1334.8868 26 26 26
-74.11377 33.225529 1334.6112 27 27 27
-69.887306 33.271534 1334.4435 29 29 29
-66.141785 33.424324 1334.2618 31 31 31
-62.080719 33.621777 1334.1639 28 28 28
-57.987926 33.806152 1334.1713 27 27 27
-54.050926 33.990101 1334.2915 28 28 28
-49.874481 34.330761 1334.5309 27 27 27
-47.702499 35.128334 1335.5166 27 27 27
-134.97099 -28.546 1339.85 121 121 121
-133.56619 -27.605841 1337.804 51 51 51
-130.91 -27.613186 1338.2312 50 50 50
-260.16464 -16.624466 1338.7533 55 55 55
-258.11832 -17.035038 1339.0668 54 54 54
-260.53674 -14.504499 1336.7875 58 58 58
-258.0112 -14.72331 1337.0096 52 52 52
-353.06766 10.805786 1337.092 25 25 25
-350.19778 10.803657 1336.952 23 23 23
-346.52194 10.936819 1336.9918 23 23 23
-353.58188 12.798888 1339.0387 25 25 25
-349.88214 12.826284 1338.9084 24 24 24
-346.50711 12.835787 1339.002 23 23 23
-340.45251 18.4753 1336.635 22 22 22
-337.91782 18.722622 1337.0985 23 23 23
-334.05536 18.94249 1337.2776 24 24 24
-330.07449 19.029676 1337.0907 24 24 24
-326.13071 19.344938 1337.0985 24 24 24
-322.03757 19.334726 1336.7809 26 26 26
-318.10132 19.4613 1336.6078 26 26 26
-313.98026 19.658442 1336.5983 26 26 26
-310.25198 19.703976 1336.4575 25 25 25
-306.01953 19.94895 1336.3116 24 24 24
-303.02466 19.943068 1336.0433 22 22 22
-249.62404 18.813248 1338.4435 16 16 16
-246.02113 18.415327 1337.7782 20 20 20
-242.03624 18.636969 1337.8484 21 21 21
-237.99902 18.673918 1337.5156 21 21 21
-234.08768 18.821062 1337.4773 22 22 22
-230.01251 19.024517 1337.4623 23 23 23
-225.96321 18.984108 1337.097 24 24 24
-222.13074 19.229532 1337.1256 25 25 25
-218.07434 19.280025 1336.9122 25 25 25
-214.13188 19.494513 1336.8857 25 25 25
-210.00835 19.602659 1336.7476 25 25 25
-206.19514 19.620153 1336.4907 26 26 26
-201.83842 19.893301 1336.4457 27 27 27
-197.88733 19.887333 1336.1635 27 27 27
-195.46899 19.88485 1336.0701 27 27 27
-337.332 20.832502 1339.1844 23 23 23
-333.95486 20.972879 1339.2233 24 24 24
-330.03424 21.180126 1339.1915 24 24 24
-325.9379 21.29476 1339.0155 24 24 24
-321.8678 21.279083 1338.7201 25 25 25
-317.99017 21.542677 1338.8126 26 26 26
-313.79675 21.601677 1338.4468 25 25 25
-309.95767 21.803829 1338.3868 24 24 24
-305.95993 21.830338 1338.2081 23 23 23
-301.99597 22.10817 1338.2186 23 23 23
-298.02142 22.0758 1337.8701 23 23 23
-294.0813 22.094051 1337.6965 23 23 23
-289.99005 22.33967 1337.6021 23 23 23
-286.04236 22.453218 1337.4996 23 23 23
-282.02243 22.65024 1337.5042 22 22 22
-278.12985 22.670166 1337.3616 22 22 22
-274.15366 22.853519 1337.1886 21 21 21
-269.9996 22.90147 1336.9091 20 20 20
-265.89935 23.026497 1336.795 20 20 20
-262.14401 23.093796 1336.7107 21 21 21
-257.91479 23.215548 1336.4979 21 21 21
-255.26701 23.220276 1336.8724 18 18 18
-251.87601 20.567301 1339.73 13 13 13
-244.03999 20.5655 1339.91 21 21 21
-241.90434 20.562784 1339.8068 22 22 22
-237.94585 20.558302 1339.653 22 22 22
-233.86708 20.827644 1339.5828 23 23 23
-230.03972 20.849501 1339.37 23 23 23
-225.9156 21.147417 1339.3904 24 24 24
-222.04846 21.110384 1339.0724 25 25 25
-217.87062 21.402294 1339.0984 25 25 25
-214.04266 21.396461 1338.8536 25 25 25
-209.91525 21.527792 1338.7073 25 25 25
-205.96819 21.781876 1338.7218 26 26 26
-202.01234 21.662785 1338.3164 26 26 26
-197.92009 21.959448 1338.4114 27 27 27
-194.0291 21.987741 1338.1945 28 28 28
-190.02715 22.004539 1337.9417 27 27 27
-186.10428 22.150686 1337.85 26 26 26
-182.05548 22.239973 1337.6239 25 25 25
-177.98721 22.32472 1337.4503 25 25 25
-174.10056 22.408674 1337.2875 25 25 25
-170.01866 22.546225 1337.1456 25 25 25
-166.09578 22.700502 1337.0485 25 25 25
-162.05948 22.838547 1336.8795 24 24 24
-158.02885 22.865339 1336.7085 24 24 24
-154.04234 23.11915 1336.6864 24 24 24
-150.06461 23.132954 1336.4431 24 24 24
-146.33076 23.318657 1336.3545 23 23 23
-142.08534 23.446634 1336.1884 22 22 22
-139.37666 23.443335 1336.0601 22 22 22
-296.20401 24.2029 1339.92 24 24 24
-293.99881 24.1999 1339.844 23 23 23
-290.04529 24.191557 1339.5486 23 23 23
-285.69382 24.462217 1339.5973 23 23 23
-281.95325 24.457701 1339.2709 24 24 24
-277.80148 24.664774 1339.2426 23 23 23
-273.97067 24.739466 1339.0543 21 21 21
-269.90677 24.85269 1338.994 20 20 20
-266.01447 25.024609 1338.7992 21 21 21
-262.05002 25.090012 1338.7479 21 21 21
-257.94617 25.33437 1338.7128 22 22 22
-255.33217 25.188972 1338.7919 20 20 20
-189.4005 24.132002 1339.885 27 27 27
-186.07529 24.128702 1339.7986 27 27 27
-181.76212 24.273251 1339.635 25 25 25
-178.0659 24.395191 1339.476 25 25 25
-173.95308 24.410648 1339.1715 24 24 24
-169.78671 24.673935 1339.2383 25 25 25
-166.01781 24.672144 1338.9541 25 25 25
-161.86351 24.880547 1338.8634 25 25 25
-158.05103 24.957325 1338.7181 25 25 25
-153.99397 25.08967 1338.6431 25 25 25
-149.95496 25.340839 1338.6001 25 25 25
-146.03474 25.221788 1338.2312 24 24 24
-141.96132 25.538984 1338.2449 23 23 23
-137.93336 25.640659 1338.1415 22 22 22
-135.12218 25.589716 1338.2263 22 22 22
-129.94618 31.530664 1336.45 24 24 24
-126.17909 31.559851 1336.384 24 24 24
-122.04528 31.795542 1336.3444 24 24 24
-118.13284 31.787834 1336.0948 25 25 25
-40.792629 30.896652 1337.2241 23 23 23
-37.995438 30.9786 1337.1754 26 26 26
-34.028046 31.158045 1337.0342 27 27 27
-31.808001 30.5737 1336.21 26 26 26
-130.01262 33.570713 1338.6381 24 24 24
-125.95051 33.69701 1338.5135 24 24 24
-122.01637 33.633022 1338.2085 25 25 25
-118.02999 33.932537 1338.3062 25 25 25
-113.95545 33.994164 1338.0957 25 25 25
-110.05537 33.845539 1337.7402 25 25 25
-106.04337 33.948223 1337.7081 26 26 26
-101.97971 34.265213 1337.739 26 26 26
-98.138695 34.18029 1337.4012 26 26 26
-94.00415 34.494633 1337.3645 26 26 26
-89.994659 34.571659 1337.1711 25 25 25
-86.025154 34.753124 1337.1572 25 25 25
-81.986725 34.862946 1336.9486 26 26 26
-77.915741 35.272499 1337.0713 26 26 26
-73.942657 35.370438 1336.9011 27 27 27
-70.104042 35.392212 1336.6449 32 32 32
-66.890526 35.61927 1336.7286 32 32 32
-62.003365 35.752731 1336.46 28 28 28
-58.089058 35.951172 1336.4843 28 28 28
-53.899239 35.94413 1336.2615 27 27 27
-49.833801 35.93956 1336.126 26 26 26
-47.626801 35.940552 1336.1799 25 25 25
-40.730122 32.672001 1339.0901 22 22 22
-37.733364 32.786026 1338.8861 25 25 25
-33.907501 33.146156 1338.9689 27 27 27
-31.683935 33.434433 1339.37 27 27 27
-276.3765 38.889153 1339.4351 22 22 22
-257.19046 38.373402 1337.9008 21 21 21
-109.57566 36.062801 1339.9366 24 24 24
-106.16415 36.056728 1339.7715 26 26 26
-101.953 36.049885 1339.587 25 25 25
-97.919281 36.319546 1339.5718 25 25 25
-94.140343 36.337543 1339.2908 24 24 24
-89.778755 36.56773 1339.1416 25 25 25
-86.036263 36.626236 1339.0334 25 25 25
-82.137695 36.707478 1338.9343 26 26 26
-77.955582 37.222267 1339.0814 25 25 25
-74.003014 37.276993 1338.8353 26 26 26
-69.95723 37.260475 1338.3984 31 31 31
-66.161964 37.685028 1338.8916 32 32 32
-61.971313 37.802231 1338.6232 28 28 28
-58.116085 37.757298 1338.3125 27 27 27
-53.958424 37.882851 1338.1199 27 27 27
-49.932243 38.156689 1338.261 26 26 26
-47.315243 38.206184 1338.4044 26 26 26
-256.26733 40.563999 1339.3834 23 23 23
-255.558 40.9786 1339.89 22 22 22
-133.18747 -29.141874 1341.8807 48 48 48
-130.58524 -29.147976 1342.2339 49 49 49
-258.16193 -20.467199 1343.1249 47 47 47
-257.90103 -18.990906 1340.8235 52 52 52
-353.48819 14.946321 1341.3031 26 26 26
-350.07407 14.914343 1341.0908 24 24 24
-346.31689 15.036788 1341.3309 24 24 24
-353.353 16.798733 1343.4523 27 27 27
-349.92279 16.735853 1343.1154 26 26 26
-346.10391 16.757977 1343.1975 24 24 24
-340.198 22.782551 1342.8301 22 22 22
-337.85013 22.757105 1341.3998 22 22 22
-334.07739 22.825598 1341.1787 24 24 24
-330.00253 23.047857 1341.1622 25 25 25
-326.10812 23.038143 1340.77 25 25 25
-322.15585 23.133844 1340.6812 25 25 25
-317.9679 23.329575 1340.5892 25 25 25
-314.3179 23.407238 1340.5018 25 25 25
-309.99384 23.620165 1340.3617 24 24 24
-306.36279 23.61442 1340.192 23 23 23
-249.85739 22.138372 1341.6284 18 18 18
-246.01094 22.102657 1341.5977 21 21 21
-241.98235 22.41139 1341.5969 21 21 21
-238.0083 22.36784 1341.3418 22 22 22
-234.00349 22.597292 1341.3051 23 23 23
-229.96297 22.714418 1341.1722 23 23 23
-226.10219 22.888947 1341.0885 23 23 23
-222.03004 23.000685 1340.9027 23 23 23
-218.26999 23.124352 1340.7554 25 25 25
-213.94307 23.259809 1340.6427 25 25 25
-210.228 23.314171 1340.438 26 26 26
-206.06572 23.551846 1340.4501 26 26 26
-202.10066 23.544683 1340.1666 27 27 27
-199.36766 23.540968 1340.04 27 27 27
-337.5726 24.5991 1343.3308 21 21 21
-333.84433 24.631762 1342.9271 24 24 24
-330.0564 24.921577 1343.0758 26 26 26
-326.24258 24.919193 1342.7969 25 25 25
-321.90976 25.190302 1342.7334 25 25 25
-317.87723 25.180653 1342.4412 25 25 25
-313.96613 25.488325 1342.5122 24 24 24
-309.93173 25.599503 1342.3092 23 23 23
-306.03998 25.711473 1342.2679 23 23 23
-301.92493 25.863377 1342.1385 23 23 23
-297.9762 25.930021 1341.9537 23 23 23
-293.94904 26.294621 1342.0072 22 22 22
-289.91202 26.337257 1341.7358 22 22 22
-286.07141 26.529116 1341.7637 22 22 22
-282.04581 26.6485 1341.6554 22 22 22
-278.09946 26.720867 1341.3652 23 23 23
-273.75751 26.87496 1341.1957 23 23 23
-270.01382 26.985334 1341.1487 22 22 22
-266.07019 27.171593 1341.0266 21 21 21
-261.98502 27.230135 1340.8721 21 21 21
-258.10052 27.408613 1340.8099 21 21 21
-255.02574 27.265598 1340.7524 19 19 19
-250.11584 24.323843 1343.7385 17 17 17
-245.94643 24.234344 1343.6985 21 21 21
-241.68851 24.380875 1343.64 22 22 22
-237.69102 24.443775 1343.4818 22 22 22
-234.04866 24.520025 1343.2926 22 22 22
-229.97694 24.628164 1343.1824 23 23 23
